64.850 58.249 -0.226 146 144 114
66.364 73.087 0.902 157 159 113
24.264 6.071 1.458 135 154 128
12.195 55.288 0.703 178 107 67
114.711 12.675 -1.938 127 121 87
136.945 1.054 3.245 143 110 122
68.498 18.529 0.156 140 120 76
130.132 24.620 -1.197 115 132 94
149.961 19.524 0.268 181 161 120
139.557 66.168 -0.313 136 135 71
88.129 49.171 1.928 110 99 57
108.766 29.802 -2.876 113 130 103
89.762 0.245 2.322 155 104 84
18.970 9.548 1.855 107 108 57
91.043 55.970 -0.269 175 78 84
140.075 8.910 2.360 190 134 138
132.099 15.723 0.819 139 109 111
109.169 9.908 -2.486 182 140 75
75.572 63.141 0.535 158 155 90
88.745 65.636 0.014 184 160 70
23.529 5.717 1.871 120 154 78
129.826 29.038 0.350 173 113 56
119.873 33.261 -0.764 170 130 142
57.536 4.664 -0.407 181 100 121
43.750 34.843 -4.079 204 102 51
111.730 29.835 -2.070 146 162 88
34.812 57.329 -1.674 155 167 86
129.079 31.165 0.368 120 107 80
96.406 3.500 0.276 176 57 89
75.842 70.896 1.218 163 120 80
3.647 69.777 -0.577 160 147 132
125.598 33.563 0.805 173 121 107
129.401 33.529 0.395 143 156 135
87.490 4.143 3.230 148 131 116
15.108 25.762 1.369 179 131 124
11.841 34.386 2.723 130 139 57
20.907 24.099 0.640 145 138 87
99.941 51.731 -0.138 147 159 77
116.762 68.327 -3.137 177 113 61
81.648 72.142 2.099 125 128 96
101.051 33.531 -1.021 147 108 80
67.174 72.446 0.836 147 119 72
79.824 71.601 0.542 179 146 108
142.677 12.961 0.750 168 127 61
128.333 18.744 -1.041 138 85 98
30.749 20.701 -2.666 204 102 51
81.321 70.691 1.976 183 113 92
67.602 44.301 1.073 115 165 96
16.851 32.006 1.796 142 132 97
78.719 38.221 3.522 134 122 130
64.408 55.358 -0.534 163 101 80
91.610 7.127 0.180 147 115 89
35.895 36.154 -0.222 109 124 124
130.172 68.393 -0.060 156 126 127
66.290 13.644 1.001 151 151 113
138.430 32.155 1.556 156 90 76
114.717 72.817 -1.763 134 58 71
127.861 14.641 -1.084 155 124 134
73.356 36.374 2.533 149 101 31
115.036 65.331 -3.821 155 103 150
112.448 39.205 -0.175 132 141 112
132.381 36.869 1.621 178 116 121
105.790 6.234 -0.704 131 92 99
39.863 70.772 -1.481 181 79 122
32.993 44.502 1.144 97 142 54
113.996 45.748 -0.094 125 112 85
40.117 19.469 -4.250 167 90 150
121.265 0.088 1.001 142 177 102
65.089 4.827 1.387 166 116 90
116.403 13.733 -2.883 185 104 77
43.977 43.433 -0.095 158 121 142
70.752 51.739 1.121 164 152 88
42.007 50.288 -1.496 189 94 106
127.903 29.936 0.217 150 106 78
62.872 26.902 -4.509 76 76 76
115.671 1.154 -0.470 186 107 121
49.373 15.834 -2.976 123 140 112
101.476 38.391 -0.028 165 139 114
78.065 21.900 0.741 153 116 143
69.360 4.932 3.204 118 139 100
58.462 27.147 -0.993 142 127 118
72.328 49.463 1.674 124 165 101
77.485 7.435 2.869 107 194 110
57.261 71.239 -1.801 133 127 77
13.715 67.908 0.251 159 123 111
77.242 33.215 5.012 178 153 127
119.649 12.994 -0.971 146 153 98
28.001 36.895 1.392 172 104 148
22.925 17.983 -0.582 132 151 116
148.536 44.326 2.567 126 117 87
134.158 21.910 0.826 147 139 106
111.335 45.163 -1.191 127 146 63
2.941 31.206 0.431 132 153 88
114.387 49.346 -1.819 126 118 132
121.109 40.751 0.516 168 102 43
26.596 59.107 0.407 172 158 114
39.209 54.028 -1.607 122 142 79
7.115 10.903 1.345 161 113 131
91.084 70.936 0.587 172 164 105
82.563 30.839 6.036 178 153 127
45.611 3.677 -0.863 150 132 115
122.475 0.188 1.528 160 87 106
65.106 56.178 -0.560 125 148 133
25.791 40.446 2.399 140 129 108
137.221 57.771 0.333 167 127 44
60.793 29.349 -4.949 76 76 76
68.374 23.208 0.385 106 156 89
2.034 64.343 0.058 160 140 99
104.970 50.239 -1.659 142 139 77
133.472 68.419 0.791 151 119 154
28.753 7.825 1.138 146 74 108
106.239 19.275 -3.935 184 111 115
109.390 19.867 -4.807 162 106 99
40.380 73.321 -1.865 166 144 121
142.743 7.331 2.357 145 94 87
121.468 61.584 -2.016 178 157 104
133.182 0.286 2.390 125 131 108
133.729 41.268 2.800 165 121 67
58.460 3.155 0.794 97 110 127
115.741 37.646 -0.872 165 150 76
13.138 27.061 1.919 179 152 55
66.397 7.119 1.038 150 78 130
136.124 7.905 2.524 145 147 111
8.850 50.832 2.447 137 150 81
137.075 35.381 2.843 155 127 91
78.407 1.750 4.595 179 128 68
138.932 72.331 2.225 128 154 106
30.024 43.881 1.867 157 137 63
32.004 19.634 -0.915 145 109 160
135.347 61.637 -0.318 168 143 52
141.742 3.741 2.877 154 96 84
70.760 21.980 0.250 130 119 67
148.129 61.856 -0.398 158 53 114
51.599 43.039 -0.143 171 102 69
108.394 68.635 -2.799 171 90 98
114.429 48.947 -1.142 137 117 87
143.943 37.609 2.563 132 56 120
25.245 38.266 2.751 162 141 140
45.430 64.976 -2.813 162 129 52
92.389 3.172 1.577 194 141 83
26.979 53.157 1.084 135 156 92
53.469 37.991 -1.362 101 120 123
60.827 1.869 1.717 168 136 97
17.732 28.934 1.490 158 144 127
12.953 38.033 2.282 119 150 114
66.019 62.174 -0.514 154 155 100
7.231 39.403 2.685 207 133 92
20.037 62.432 0.634 165 163 124
135.840 51.322 3.010 183 123 151
130.426 42.473 1.854 175 102 100
22.421 44.712 2.662 160 133 73
36.864 35.550 0.573 157 132 118
53.859 15.743 -2.426 136 107 90
45.059 4.021 -1.204 126 174 85
12.410 17.883 1.333 150 120 83
103.757 52.847 -2.619 144 68 101
117.619 38.282 -0.378 151 108 110
125.252 15.113 -1.100 184 150 110
75.069 25.916 5.220 178 153 127
124.471 58.350 -1.665 137 137 80
61.180 41.668 1.314 170 157 106
36.669 9.207 -1.139 186 100 75
111.928 21.382 -3.081 172 113 114
19.400 73.181 1.735 188 144 96
70.318 70.441 0.151 193 148 55
143.991 17.615 0.610 168 107 119
128.159 44.559 1.932 165 93 102
105.738 44.879 -0.186 153 123 99
109.246 19.254 -2.450 159 108 116
43.528 17.206 -2.797 145 184 101
101.296 73.443 -0.643 138 155 63
93.108 71.427 -0.923 152 151 134
36.794 0.600 -0.096 143 101 100
137.085 28.362 2.083 178 130 104
119.158 11.923 -1.263 163 114 89
80.868 15.710 0.496 144 139 95
93.938 34.426 0.410 128 113 70
44.725 5.760 -0.835 147 124 92
132.534 55.559 0.889 146 150 145
89.206 1.563 2.742 133 107 111
121.604 51.093 -1.013 151 130 53
55.976 71.801 -1.318 161 163 97
32.824 1.600 1.174 129 108 66
18.143 50.710 1.574 151 121 97
140.061 64.648 -0.015 155 111 66
108.319 22.004 -3.019 184 109 134
133.498 28.508 0.617 141 54 108
54.183 30.672 -2.435 171 81 99
39.580 18.758 -2.879 103 129 66
103.058 38.394 -0.298 183 99 135
142.370 62.966 0.795 177 101 93
43.341 41.399 0.163 140 123 95
105.978 18.106 -2.695 163 155 113
35.666 57.348 -1.598 157 168 148
148.570 58.196 -0.033 172 93 128
130.418 51.412 0.949 182 115 57
44.770 8.429 -2.243 141 95 117
29.821 68.101 -1.067 178 104 140
9.571 8.246 2.553 144 124 108
139.040 16.850 0.727 134 130 128
61.867 60.972 -1.471 168 115 130
72.245 41.919 2.888 162 145 73
131.633 6.941 2.386 155 160 125
138.542 68.428 0.775 172 112 112
39.059 47.267 -0.491 158 127 109
101.277 66.352 -2.330 105 127 97
9.326 38.991 3.009 175 144 94
130.004 23.931 -0.305 129 85 134
95.847 40.013 1.779 195 118 105
113.278 9.299 -1.641 190 122 137
39.791 27.245 -4.959 204 102 51
20.975 70.841 0.823 199 103 108
58.501 0.995 -0.050 120 69 128
100.991 73.541 -0.607 101 127 110
148.092 31.417 1.743 167 123 75
104.488 50.330 -1.113 115 115 84
37.702 16.245 -2.894 139 159 123
5.050 66.411 -0.707 158 149 82
55.182 53.786 -1.284 178 137 107
137.415 65.622 0.854 128 116 123
82.556 37.739 2.785 187 96 111
136.659 13.603 1.401 137 93 97
113.710 64.105 -3.226 157 154 98
100.773 23.049 -2.678 169 158 121
102.460 2.633 -0.476 146 153 80
108.260 21.035 -3.442 184 121 115
71.705 56.964 0.678 149 168 82
37.573 17.322 -2.185 175 165 156
71.790 15.250 0.943 140 128 66
14.800 34.688 2.856 177 132 91
88.019 13.880 1.538 119 74 72
3.430 42.131 2.099 146 129 142
72.601 4.504 2.727 170 146 106
117.380 31.652 -1.191 135 136 114
59.160 6.631 0.131 132 137 94
87.129 20.828 -0.468 139 113 99
147.909 49.795 1.455 155 132 60
121.783 57.414 -2.322 119 116 107
98.015 41.050 0.574 154 55 114
145.652 63.897 -0.126 117 152 87
136.196 48.708 2.116 151 107 59
69.318 2.511 2.982 116 145 51
81.855 7.558 2.265 125 84 108
124.668 69.984 -0.693 104 136 167
83.892 19.917 0.026 152 171 111
141.194 7.626 3.252 134 152 115
105.849 61.233 -3.164 138 167 108
118.387 65.609 -2.236 163 125 92
12.818 44.858 2.959 122 150 124
124.670 31.009 -0.281 169 154 65
102.991 10.462 -2.271 174 137 108
124.802 69.859 0.242 162 151 70
71.503 19.157 -0.281 157 86 80
21.602 29.693 1.858 137 158 111
128.867 51.305 1.128 148 152 86
127.484 71.751 -0.890 155 117 119
80.564 71.780 2.004 153 121 83
124.190 1.466 1.191 152 142 140
32.224 33.713 -1.342 204 102 51
23.373 64.616 0.356 155 164 111
132.512 65.923 -0.410 185 105 124
131.728 67.291 -0.580 176 130 84
120.939 30.448 -2.125 119 121 91
16.535 72.187 1.183 119 129 84
136.727 3.395 2.910 128 144 137
110.012 15.012 -2.988 136 78 119
143.700 34.559 2.528 156 68 97
146.956 5.590 2.900 121 120 138
119.753 73.432 -1.483 132 163 102
13.945 32.882 1.974 126 177 108
147.589 74.015 1.670 153 124 100
95.981 65.381 -0.147 182 118 108
87.758 25.694 0.289 162 111 72
98.352 7.924 -1.452 142 130 107
7.456 25.140 0.067 128 137 124
134.015 68.807 0.631 188 97 137
45.887 36.735 -1.391 181 152 106
47.547 69.192 -2.808 191 150 127
145.830 46.136 3.310 166 108 163
47.328 67.285 -3.299 128 150 89
142.194 71.377 2.034 150 105 43
88.802 35.588 1.239 159 117 121
45.811 34.950 -3.009 204 102 51
1.150 4.149 1.473 130 124 109
39.240 32.525 -1.676 204 102 51
53.718 30.931 -1.579 155 142 95
81.444 20.917 0.277 96 115 43
136.817 66.725 0.579 124 172 81
78.537 6.789 2.504 169 143 114
129.217 66.483 -1.236 143 52 87
44.142 30.519 -5.267 204 102 51
107.884 36.094 -1.279 147 127 133
118.638 3.347 -0.538 153 115 119
101.225 73.475 -0.596 93 141 110
6.163 74.438 1.653 169 113 130
24.962 41.327 3.304 151 149 85
71.382 43.715 3.672 120 104 142
145.269 24.311 0.744 190 151 67
45.409 30.954 -5.167 204 102 51
125.840 56.691 -0.215 156 151 106
39.722 54.552 -2.721 157 159 139
93.958 47.110 0.743 113 140 128
77.588 54.563 1.475 149 135 72
103.249 72.928 -2.345 184 132 107
7.371 25.536 0.550 159 138 114
40.530 18.126 -2.980 180 140 88
102.398 3.372 -0.194 163 151 120
45.835 1.657 -0.551 150 130 102
1.490 19.082 -0.569 151 136 97
61.284 45.036 1.779 121 125 83
100.818 16.045 -2.064 182 160 102
4.753 32.465 1.470 141 150 90
111.865 74.352 -1.993 154 98 60
54.968 59.984 -2.427 143 165 132
84.824 70.834 0.958 168 112 98
7.178 39.431 2.557 162 104 141
11.372 65.964 -0.099 167 120 112
127.815 31.610 0.132 143 115 82
87.655 56.171 1.213 160 85 130
63.921 8.072 1.701 191 147 122
107.730 73.477 -1.936 151 141 119
105.299 70.759 -2.422 183 138 93
36.130 37.661 -0.028 142 133 99
47.216 34.435 -2.784 204 102 51
47.477 66.862 -3.188 129 177 58
103.740 48.211 -0.637 136 130 91
72.592 71.774 0.512 204 120 170
130.734 46.023 2.776 156 124 122
1.444 23.304 -2.053 179 136 102
6.131 38.898 2.571 148 147 104
139.732 5.317 2.776 100 114 79
124.274 50.936 0.316 169 146 66
149.063 52.295 2.143 135 115 30
51.573 8.420 -1.606 186 168 81
26.320 63.703 0.501 125 108 73
96.308 0.154 1.243 183 130 62
87.828 66.662 -0.344 122 125 129
100.572 14.363 -2.729 214 120 96
31.696 65.766 -1.596 144 101 94
33.639 16.422 -2.006 175 91 75
92.027 64.821 -1.488 159 132 63
4.969 50.484 2.408 175 99 84
31.087 13.053 -0.588 154 125 95
7.212 41.159 2.886 145 99 77
18.478 46.971 3.131 155 119 102
40.896 14.606 -1.614 146 151 97
82.544 14.736 0.600 159 163 98
24.177 37.501 2.195 171 95 109
30.247 67.357 -1.364 174 108 107
115.795 21.128 -2.848 194 122 131
17.869 23.679 0.413 199 76 105
46.214 57.300 -2.149 175 162 88
39.141 73.752 -0.529 118 106 113
6.367 34.007 1.224 152 115 110
25.178 50.904 1.320 194 148 139
17.221 3.550 4.228 133 93 112
135.338 73.078 1.775 157 121 103
87.197 63.471 -0.647 179 137 111
40.440 62.722 -2.974 169 117 103
17.879 44.790 3.247 144 134 128
137.632 12.993 1.018 148 160 64
60.723 12.855 -4.917 76 76 76
142.834 43.355 3.895 113 144 100
81.957 61.304 0.889 141 84 74
50.404 25.601 -2.978 146 93 79
56.213 47.883 -1.178 148 119 117
110.022 27.591 -3.390 132 163 89
129.116 13.014 -0.110 142 131 112
136.778 31.863 1.881 154 120 74
30.070 32.573 -1.877 204 102 51
33.407 52.901 -0.927 162 96 88
91.826 3.065 1.846 166 113 81
147.723 3.019 3.328 130 112 51
31.428 53.342 0.070 178 108 81
125.859 37.296 1.297 159 117 27
33.243 60.696 -1.787 135 178 120
108.931 40.077 -0.130 179 131 85
148.210 4.963 3.042 168 116 130
69.408 36.546 2.268 206 105 93
56.217 66.134 -1.534 170 138 120
138.061 56.529 0.934 157 117 112
108.339 64.225 -3.565 184 134 137
108.695 65.949 -4.074 128 171 54
134.018 21.923 0.738 82 114 89
79.522 29.996 5.576 178 153 127
23.413 49.772 1.421 179 119 87
133.828 9.143 1.204 128 99 102
18.698 70.853 0.308 140 173 101
43.577 63.080 -3.237 146 113 117
45.532 53.559 -1.488 148 111 71
140.857 61.825 0.273 152 120 103
12.419 59.010 1.500 134 120 102
34.476 14.648 -1.916 100 97 120
49.330 54.551 -2.167 155 165 58
58.533 57.283 -1.491 140 121 143
104.182 31.584 -1.687 130 133 106
149.429 48.320 2.405 167 120 120
89.755 35.920 1.970 206 108 117
126.561 58.136 -0.288 139 126 133
97.056 71.769 -1.298 117 109 125
87.272 16.968 0.651 104 118 61
131.275 22.418 -0.851 171 175 90
15.063 18.739 0.373 182 121 163
99.101 60.552 -2.733 181 158 108
141.900 74.125 1.695 135 140 105
92.352 26.064 -0.634 181 120 75
75.040 31.165 5.954 178 153 127
48.826 60.218 -4.094 181 83 117
132.082 63.940 -0.711 137 131 109
5.356 56.746 0.983 164 114 93
138.079 28.684 0.813 155 120 114
32.025 7.876 0.299 118 133 84
106.312 51.302 -2.432 165 111 67
133.339 5.375 1.941 108 177 69
67.948 65.942 -0.745 158 120 100
136.236 53.688 1.723 152 130 88
127.817 49.069 0.854 190 199 80
100.686 19.811 -3.961 135 156 67
21.587 8.786 1.807 166 136 137
31.528 38.248 1.760 138 158 66
122.104 42.678 1.366 175 150 112
106.402 41.110 -0.601 130 120 45
15.508 65.024 0.929 186 145 103
122.525 52.171 -0.794 196 107 129
65.351 48.631 1.659 187 165 144
76.345 18.651 0.931 161 128 114
107.521 26.910 -2.850 146 113 94
2.058 42.120 1.747 165 163 70
19.018 45.007 4.061 145 132 85
44.746 23.170 -4.766 204 102 51
53.332 4.439 -0.354 73 138 100
51.971 1.210 -0.165 211 162 130
17.155 31.002 2.108 184 112 127
8.594 0.569 3.940 136 118 95
45.517 20.469 -4.320 204 102 51
147.379 11.424 1.414 144 135 101
24.555 44.297 2.958 187 121 123
139.441 63.087 -0.135 176 120 124
7.365 1.022 3.447 98 176 81
143.743 56.239 0.739 189 119 110
119.819 48.418 -0.930 132 151 109
19.232 46.244 3.060 162 161 111
10.221 65.881 0.611 125 138 103
20.439 31.143 1.344 184 148 125
85.433 0.818 2.964 175 127 62
126.988 41.987 1.731 118 136 73
123.217 6.704 0.037 152 114 103
5.365 56.221 0.234 133 174 156
65.983 42.517 1.353 140 102 101
5.574 48.329 1.858 169 177 96
110.404 68.106 -3.126 176 163 81
34.671 51.365 -1.164 132 120 72
73.918 21.679 0.036 142 149 91
90.987 27.258 -0.032 146 117 113
82.823 0.857 2.927 139 102 91
103.396 21.658 -2.904 174 130 100
31.567 24.699 -2.858 204 102 51
100.472 13.634 -1.637 128 133 103
12.107 65.047 -0.155 158 104 97
102.670 2.247 0.118 135 88 85
52.286 38.193 -0.194 154 157 120
24.650 4.879 1.857 193 134 149
18.738 42.164 3.113 155 78 86
27.703 25.393 -1.575 175 113 85
115.051 41.292 -0.409 150 84 80
101.103 18.598 -3.302 172 130 119
138.385 64.375 0.600 116 145 141
4.594 37.691 2.363 129 125 116
111.843 33.159 -1.222 145 121 102
110.722 11.958 -1.884 169 112 57
2.149 58.016 -0.507 148 192 140
34.213 48.275 0.644 185 132 96
12.608 33.911 2.344 189 162 141
53.021 4.451 -0.075 172 150 143
111.278 26.286 -2.656 130 136 112
20.277 48.723 2.175 134 107 111
11.803 11.353 0.688 154 159 79
52.346 24.028 -2.116 114 98 109
126.030 35.691 0.389 123 172 84
55.735 64.498 -3.284 131 113 103
91.583 17.252 -0.284 167 93 138
105.084 50.358 -1.617 108 95 59
142.437 33.802 2.702 177 121 85
145.648 23.955 0.978 126 132 112
34.783 44.692 0.641 221 87 109
61.130 42.873 0.705 148 148 149
13.437 34.083 2.796 132 102 81
139.348 37.076 3.889 172 101 91
146.783 42.348 2.844 151 159 61
59.730 72.342 -1.358 177 102 123
55.772 43.478 -0.354 125 138 113
11.804 11.904 1.647 122 108 52
87.582 40.058 3.487 131 164 112
64.750 15.102 -4.408 76 76 76
128.080 22.011 -0.724 195 152 69
11.622 48.423 2.879 160 142 100
48.900 52.761 -2.501 148 114 124
121.471 41.993 1.195 91 136 136
142.567 6.175 2.411 154 122 89
114.747 62.323 -2.934 191 130 105
54.842 55.821 -2.661 152 123 149
41.674 14.713 -2.724 168 159 110
96.346 5.242 1.244 208 134 115
79.711 15.728 1.023 130 143 94
0.174 38.683 1.773 197 93 102
64.545 31.382 -1.435 76 76 76
100.241 25.056 -2.031 197 128 103
115.902 62.932 -3.740 142 159 55
101.095 52.565 -0.993 128 100 122
72.038 41.340 3.522 141 125 102
55.261 50.556 -0.391 133 112 19
66.836 68.582 -0.298 197 201 110
33.903 62.377 -2.485 150 119 100
93.757 59.754 -0.771 149 124 138
26.716 36.844 1.294 151 137 125
27.175 51.568 0.805 154 110 92
47.812 45.189 -0.140 201 153 82
148.204 59.724 0.149 173 128 137
34.785 11.997 -0.926 169 94 117
49.333 73.318 -2.033 132 110 98
11.229 45.587 3.291 183 104 87
72.052 72.594 1.242 177 149 113
96.822 49.553 0.123 90 175 95
22.503 23.078 0.139 143 131 118
134.643 37.787 3.719 184 131 141
59.861 33.916 -0.563 183 157 135
136.922 5.359 2.823 180 111 107
130.929 23.153 1.249 133 126 96
22.162 46.985 3.346 118 166 95
136.843 39.154 3.634 182 137 91
16.951 47.460 2.969 141 130 112
131.427 42.635 2.831 184 103 143
118.803 32.202 -0.601 163 113 102
72.003 30.840 2.160 175 97 126
129.513 65.673 -1.113 190 87 146
31.846 41.308 2.455 184 153 112
122.779 24.900 -1.843 101 150 74
73.151 51.665 2.220 151 139 83
45.244 31.613 -3.273 204 102 51
96.740 3.714 0.802 161 109 84
68.747 66.743 -0.358 162 134 80
54.521 27.145 -2.438 159 164 128
88.339 7.196 2.569 145 152 175
116.399 25.463 -2.822 168 138 99
55.913 16.704 -1.830 181 171 56
117.481 32.909 -0.595 181 154 114
49.751 26.491 -4.454 204 102 51
134.713 73.592 0.722 99 91 95
114.364 57.053 -1.851 153 103 93
59.856 53.609 -0.233 139 134 87
40.563 4.802 -0.074 158 145 125
32.697 14.955 -1.574 171 146 106
55.430 59.549 -3.031 195 130 102
69.531 51.386 1.656 165 134 122
22.684 49.196 2.134 148 117 117
11.597 21.302 0.042 178 147 102
30.922 48.859 0.496 178 101 132
25.081 8.345 1.330 128 88 85
22.626 19.751 -0.068 177 135 81
48.643 56.249 -2.260 92 87 67
136.366 60.804 -0.088 139 107 109
3.559 7.910 0.862 147 160 69
33.188 25.071 -3.298 204 102 51
89.373 66.248 -0.019 111 133 66
117.888 22.959 -3.435 147 148 119
119.262 30.053 -1.823 114 60 122
60.315 2.755 0.539 155 107 91
39.866 41.862 -0.131 149 108 108
23.216 68.468 0.259 167 150 93
107.313 60.833 -3.303 131 138 134
52.734 57.122 -1.761 158 115 100
10.987 59.350 1.127 97 123 101
142.317 60.036 0.434 168 128 143
19.238 30.447 1.689 93 146 112
41.673 26.842 -4.843 204 102 51
48.773 27.105 -4.637 204 102 51
78.594 37.729 2.540 146 108 85
31.618 34.684 -2.484 204 102 51
79.616 26.756 2.571 178 153 127
146.145 48.697 2.358 156 91 110
44.775 32.766 -4.045 204 102 51
55.623 31.410 -1.092 162 113 113
88.558 35.914 2.487 168 159 122
45.683 31.098 -3.490 204 102 51
15.875 70.748 1.729 143 118 90
34.160 43.055 0.699 136 110 100
84.796 72.575 1.065 143 127 80
7.513 20.044 0.474 160 145 115
130.783 45.450 1.126 179 135 161
94.238 30.696 -0.422 151 139 121
45.916 16.360 -3.220 183 142 127
149.732 36.198 2.184 151 128 81
12.869 33.939 2.518 105 128 108
109.352 31.615 -1.570 144 178 115
122.161 7.768 -0.005 104 152 61
88.398 2.379 2.400 181 88 103
40.616 0.394 -0.040 154 156 96
107.395 7.807 -0.475 129 112 87
93.781 49.704 0.293 160 140 114
10.018 65.537 1.048 179 149 102
100.044 57.880 -1.863 166 110 77
46.632 49.658 -2.144 87 60 85
113.075 64.661 -2.907 147 71 93
111.482 15.967 -4.319 166 130 121
107.171 11.139 -1.315 124 140 110
140.258 22.028 0.518 130 97 117
89.332 38.489 2.912 221 146 129
48.011 53.467 -1.647 165 151 67
83.548 67.610 0.674 163 135 115
53.517 64.407 -2.441 186 142 132
61.219 50.264 -0.314 138 141 112
15.084 8.871 2.691 186 130 122
138.334 6.594 2.444 188 83 96
85.030 48.633 1.396 128 125 79
144.088 46.203 4.082 175 160 114
83.325 57.883 1.491 135 69 106
92.962 54.845 -0.049 182 119 69
90.709 65.774 -0.632 198 99 112
71.449 24.246 -0.769 132 122 59
38.879 54.054 -0.869 166 120 111
141.145 13.670 0.631 129 123 115
14.749 64.306 0.680 172 111 123
20.977 10.651 1.518 102 127 162
107.037 43.770 -1.161 146 135 106
80.326 1.494 3.186 163 158 55
4.574 63.222 -0.094 165 97 118
47.828 45.759 -0.975 122 162 118
93.561 6.895 0.671 192 120 123
0.916 12.605 0.769 110 123 94
98.189 13.738 -1.535 130 166 99
40.570 37.221 -0.558 149 101 95
73.914 62.204 0.790 171 64 93
105.091 7.987 -1.618 185 104 111
85.025 51.001 2.009 151 120 93
105.852 0.887 -0.157 140 151 108
38.041 64.990 -2.004 155 148 133
53.291 43.036 -0.335 148 145 107
3.357 56.539 -0.247 122 119 90
139.822 39.649 3.401 154 154 125
37.338 47.592 -0.217 135 89 95
65.545 29.634 0.619 130 198 86
36.710 24.608 -3.743 204 102 51
45.720 10.860 -1.658 90 146 124
68.579 34.119 2.192 160 73 119
110.876 52.238 -1.973 133 122 115
112.215 55.851 -2.852 145 126 101
130.915 68.261 -0.593 160 144 102
8.469 8.804 2.194 129 132 76
28.960 37.975 1.857 137 145 89
28.607 67.721 -0.085 140 93 93
135.323 59.715 -0.093 132 139 83
107.236 6.510 -1.242 142 142 77
86.010 20.484 0.784 192 171 107
43.277 61.299 -3.326 167 157 81
54.972 20.371 -3.712 153 130 112
128.260 9.983 0.776 140 126 97
140.107 2.128 3.931 172 129 102
15.929 25.701 0.881 159 106 77
27.825 37.328 2.085 197 131 111
71.843 51.832 1.031 137 132 97
45.318 12.728 -2.310 92 74 120
122.958 68.648 -1.266 162 133 113
138.651 31.997 2.584 139 118 97
40.677 14.945 -2.697 176 127 102
28.066 15.611 -0.216 98 132 139
140.521 58.537 0.955 176 132 152
106.203 33.271 -2.168 98 130 91
60.744 21.179 -3.284 76 76 76
33.074 62.588 -2.012 102 159 83
106.550 18.382 -3.117 101 149 124
68.812 35.680 2.788 115 121 98
37.505 73.696 -1.149 108 128 116
69.583 58.567 0.668 135 138 94
2.694 6.907 1.086 151 97 75
104.198 23.823 -2.205 136 155 135
87.190 50.786 0.487 169 122 75
67.134 70.581 0.427 160 97 80
111.971 34.090 -0.786 134 135 63
66.817 52.428 0.492 128 131 85
92.949 14.715 -0.150 126 131 124
15.689 74.230 2.022 184 157 147
148.096 3.677 2.094 121 117 50
130.253 19.259 -1.099 131 105 95
75.900 33.559 4.810 178 153 127
121.398 24.615 -1.453 131 168 91
62.264 35.453 -2.879 76 76 76
100.097 53.054 -2.209 130 152 108
63.086 18.648 -3.841 76 76 76
65.464 14.951 -1.176 194 157 148
52.552 24.593 -2.958 147 132 71
71.877 72.333 0.182 164 133 129
96.034 40.209 1.138 146 117 96
48.758 31.102 -5.486 204 102 51
145.420 17.905 -0.350 170 89 137
58.108 74.357 0.060 164 82 119
3.555 6.464 0.726 170 145 96
116.767 14.714 -2.794 170 189 136
0.117 68.832 -0.139 155 142 76
13.833 38.162 3.336 193 144 77
91.253 55.949 -0.728 164 158 89
118.466 6.609 -0.172 152 134 83
121.608 31.813 -0.151 188 112 148
132.002 48.646 1.510 124 113 93
135.613 26.683 0.483 144 114 84
37.772 11.161 -1.650 120 83 126
39.761 60.630 -3.611 140 134 47
149.293 27.533 0.207 163 126 104
59.613 66.043 -2.057 122 143 74
90.825 31.222 0.695 117 65 97
78.123 63.878 1.271 121 116 97
52.620 10.870 -2.407 149 108 99
91.357 23.351 -1.474 142 148 93
126.658 73.356 -0.385 170 124 94
67.236 17.652 -0.170 118 117 122
79.597 45.493 4.782 193 82 61
94.016 62.026 -1.380 160 116 119
88.686 48.338 1.841 173 118 94
92.303 65.101 -0.995 162 148 114
115.417 17.766 -2.769 115 142 112
6.749 24.860 1.126 129 111 104
42.644 74.717 -1.640 150 161 142
128.599 68.916 0.115 165 141 134
36.435 53.496 -1.688 160 111 89
81.373 69.626 1.155 180 136 85
103.184 16.836 -2.776 124 98 83
97.418 53.217 -1.266 212 144 122
33.027 29.616 -3.587 204 102 51
68.375 35.277 2.560 127 86 81
48.416 28.830 -5.208 204 102 51
122.004 74.325 -0.457 142 95 100
104.956 1.837 -0.148 142 96 123
125.508 32.419 -0.128 132 69 114
108.611 63.948 -3.165 139 153 154
143.097 61.248 0.004 218 141 106
76.290 52.386 0.731 155 144 110
130.203 58.127 -0.747 154 107 87
55.288 71.728 -1.545 129 140 110
116.863 48.054 -1.047 143 111 106
8.076 73.410 1.516 114 144 72
121.441 67.321 -1.924 157 133 98
119.561 19.087 -2.885 202 126 76
66.850 39.613 1.878 116 108 87
81.168 38.140 3.142 159 143 69
10.313 53.301 0.855 94 147 93
70.117 12.561 1.130 138 129 113
31.931 47.764 0.753 160 107 122
145.074 41.378 2.792 158 88 90
29.043 36.563 0.855 142 147 143
16.181 32.589 1.999 104 88 113
68.062 48.497 2.612 154 149 64
35.681 52.720 -0.426 133 62 118
60.183 45.600 0.315 155 116 153
56.833 7.609 -1.077 142 132 111
47.318 23.994 -4.880 204 102 51
8.816 63.357 0.350 87 123 133
30.268 26.667 -2.674 204 102 51
31.489 52.336 0.249 162 124 105
75.317 15.392 1.521 185 103 83
126.354 30.195 -0.444 110 153 146
87.339 38.778 2.660 144 129 74
36.515 54.426 -1.514 140 129 154
40.105 22.542 -3.851 204 102 51
81.022 3.951 3.620 145 129 79
103.188 49.655 -1.789 157 121 81
97.854 55.674 -1.032 137 159 92
50.889 21.350 -3.365 130 133 113
57.759 40.120 0.106 145 137 114
10.453 58.826 0.393 162 104 146
8.330 51.241 1.838 118 126 91
77.286 18.444 0.820 104 106 123
141.765 22.442 0.807 171 113 142
76.859 19.080 0.194 167 104 98
35.307 15.998 -2.202 154 111 125
17.889 1.196 3.833 141 85 109
98.670 45.388 1.366 125 112 112
122.028 46.798 0.644 158 112 136
54.972 23.980 -2.913 167 147 90
125.364 29.178 -0.705 154 129 92
33.920 60.757 -1.758 151 128 93
90.423 12.017 0.356 189 107 116
39.513 66.400 -2.691 156 123 91
138.504 26.429 0.554 140 129 115
39.053 30.332 -3.319 204 102 51
107.353 31.445 -2.407 131 106 156
64.451 35.443 -2.186 76 76 76
41.102 27.237 -4.395 204 102 51
115.411 19.553 -3.721 156 125 76
49.340 53.223 -1.995 105 125 92
66.805 55.635 0.381 166 96 140
116.382 22.450 -3.576 178 115 131
75.464 53.802 1.452 147 110 114
52.087 69.904 -1.849 133 124 119
39.670 45.466 -0.699 193 133 111
19.148 63.865 0.034 142 110 99
97.375 70.755 -0.867 172 161 89
147.429 53.254 1.104 149 122 77
0.481 29.850 0.099 168 131 107
148.928 72.587 1.085 175 112 107
143.427 71.335 0.922 164 156 118
0.215 52.041 -0.638 156 138 98
76.375 14.146 1.386 146 96 127
100.407 9.398 -0.546 193 115 69
56.609 1.081 0.024 175 109 100
67.245 67.263 -0.441 128 75 85
126.804 28.708 -0.133 154 128 103
2.094 47.143 1.759 151 161 98
37.978 34.107 -2.177 204 102 51
88.942 67.320 -0.620 145 118 108
77.073 21.028 -0.032 112 155 53
86.634 58.749 0.745 108 107 79
132.584 7.062 1.226 140 112 81
33.819 33.278 -2.113 204 102 51
7.964 41.836 3.090 119 150 109
119.799 10.204 -0.244 158 131 125
122.057 66.769 -1.319 137 102 75
72.383 20.706 0.298 183 127 69
37.755 28.025 -4.394 204 102 51
61.617 49.995 -0.148 143 128 114
113.501 36.869 -0.770 142 89 86
2.399 41.327 1.867 157 161 148
60.811 71.202 -1.097 149 127 116
124.713 42.944 -0.062 137 166 87
43.354 24.535 -6.335 204 102 51
58.168 9.091 -1.148 148 115 128
64.411 7.020 0.996 159 146 116
47.895 10.176 -2.190 157 91 136
117.455 50.072 -1.183 149 129 116
14.418 5.032 3.699 117 125 147
91.716 22.314 -1.038 194 73 129
30.019 27.449 -3.072 204 102 51
50.589 18.189 -3.229 121 100 97
89.952 43.474 2.494 140 211 98
45.185 9.898 -1.762 136 126 136
99.581 61.463 -2.974 205 108 117
145.051 4.962 2.745 140 105 94
53.421 12.617 -1.968 135 175 85
147.514 49.413 2.016 164 146 69
84.707 9.055 2.196 148 136 115
28.620 13.835 -0.174 93 149 151
8.388 16.354 -0.119 169 173 87
118.148 17.643 -1.981 140 121 114
39.351 7.694 -1.030 184 124 105
111.435 66.490 -2.710 100 108 84
30.293 51.342 0.573 155 115 46
110.810 68.058 -2.110 168 142 133
80.175 2.817 3.906 211 129 97
21.924 29.873 0.867 172 141 98
116.223 48.743 -1.011 167 105 94
23.721 18.661 0.681 189 133 98
137.271 11.497 1.480 82 155 110
21.406 3.299 2.818 178 139 48
130.890 56.127 -0.036 154 137 115
132.141 58.824 0.064 164 120 74
31.274 28.295 -3.690 204 102 51
69.046 21.882 -0.466 168 74 89
4.646 71.359 0.450 219 155 111
141.193 29.628 1.325 153 123 126
36.895 15.670 -1.937 150 116 79
57.540 47.166 -0.320 110 83 153
72.254 9.790 2.237 139 114 103
20.343 19.157 0.580 121 144 87
133.447 6.449 2.017 115 145 84
22.900 0.301 3.551 167 161 65
47.817 24.642 -6.553 204 102 51
44.210 71.327 -2.956 174 116 132
45.721 59.081 -2.537 81 61 106
1.982 64.266 -1.070 154 147 64
39.070 16.578 -2.312 190 166 123
46.781 45.306 -0.876 160 95 27
72.987 14.388 1.027 116 121 89
47.178 41.208 -0.671 201 152 111
16.550 62.821 0.312 186 186 64
39.523 27.315 -3.496 204 102 51
139.741 1.717 2.787 172 186 138
55.055 55.617 -2.208 139 126 106
101.311 68.160 -2.263 157 153 107
78.663 63.162 -0.039 137 89 71
31.826 71.697 0.044 142 125 99
85.432 29.531 1.655 192 123 156
38.997 40.946 -0.408 157 123 128
78.747 53.960 1.546 161 121 127
30.687 47.045 1.151 179 87 88
108.656 67.182 -3.020 138 85 123
104.219 14.095 -1.833 144 161 150
29.674 52.703 0.415 147 160 155
14.327 69.422 0.907 151 150 61
66.969 63.810 -0.551 136 138 87
43.747 24.069 -5.717 204 102 51
82.228 11.497 1.375 162 178 125
133.818 60.069 -0.471 150 164 65
132.933 51.473 1.796 168 123 97
35.245 65.721 -1.580 124 147 94
42.960 5.235 -1.341 170 110 111
86.558 8.709 2.281 169 113 52
60.264 53.312 -0.413 189 113 120
88.999 25.578 -0.131 175 106 106
4.256 47.022 2.296 154 118 60
97.835 70.169 -0.919 154 134 63
9.574 14.115 0.719 171 141 115
2.440 34.599 1.545 139 104 116
25.668 58.988 -0.042 120 141 95
51.004 8.501 -1.326 165 114 92
97.590 49.490 0.339 128 136 76
29.549 5.669 1.303 142 92 86
23.501 47.648 2.167 139 121 120
23.624 43.520 2.481 153 128 120
134.893 42.733 2.855 196 130 112
69.425 33.610 1.382 123 135 75
100.810 7.348 -0.747 172 120 84
38.295 20.315 -5.733 204 102 51
68.895 47.497 1.897 161 125 73
56.050 16.351 -1.825 146 169 135
76.160 59.902 0.892 140 197 150
20.461 25.278 0.453 168 108 82
9.078 17.279 0.250 137 178 76
142.995 26.585 0.568 131 146 141
32.425 58.423 -0.786 180 118 102
75.280 45.239 3.076 144 101 145
58.338 63.781 -1.805 135 136 84
106.279 18.364 -3.459 166 121 83
5.097 13.538 0.518 136 124 119
117.521 57.908 -2.479 134 153 152
43.014 29.365 -4.195 204 102 51
140.804 35.446 3.585 166 159 117
28.865 59.484 -1.026 122 127 95
47.163 57.447 -3.262 131 127 100
79.991 31.284 5.275 178 153 127
115.717 73.084 -1.954 151 118 120
44.897 61.068 -4.254 118 153 141
35.987 51.605 -0.511 116 119 89
71.300 14.849 0.565 206 132 87
65.289 34.825 1.568 124 151 117
29.092 60.739 -1.223 133 125 143
116.171 74.490 -0.926 164 147 136
94.905 38.769 2.451 148 132 120
55.265 56.678 -2.157 197 155 130
3.779 42.728 2.727 141 80 104
2.898 40.673 2.435 152 115 114
19.380 46.545 3.170 145 106 134
10.608 16.683 0.536 181 160 112
99.048 58.872 -2.427 172 163 52
64.116 69.453 -1.028 115 117 101
6.575 53.645 -0.040 154 115 66
6.074 15.174 0.383 130 156 97
4.885 58.395 -0.259 193 134 117
38.917 9.345 -1.082 165 144 139
124.874 30.330 -0.557 173 107 84
127.769 4.024 1.595 122 130 92
131.655 40.953 2.234 129 133 89
132.569 56.260 -0.194 172 154 119
56.367 2.873 0.352 154 114 93
142.289 2.376 4.010 106 147 81
107.469 61.311 -3.777 157 162 100
147.293 49.169 1.770 135 118 78
126.797 3.147 1.909 116 114 86
49.493 48.778 -0.530 131 125 57
119.393 45.846 -0.397 179 124 73
27.308 28.081 0.296 167 151 88
130.073 12.277 0.676 187 139 89
72.281 36.574 2.213 140 155 115
92.399 71.436 -0.850 186 110 78
38.404 44.547 -0.227 109 139 92
70.324 52.833 0.771 115 146 67
36.816 71.146 -0.688 129 110 130
57.836 63.134 -1.898 166 65 89
24.284 19.870 -0.974 119 163 91
55.007 22.330 -2.558 121 132 67
70.223 18.570 0.461 152 92 94
43.386 74.888 -2.022 180 98 116
36.874 28.767 -2.805 204 102 51
130.438 74.400 0.709 139 133 64
32.919 41.391 0.149 133 132 120
115.124 70.651 -2.136 153 137 130
111.507 48.612 -1.390 191 185 68
136.035 41.273 3.138 151 164 122
124.666 8.577 0.622 168 105 118
15.303 44.531 2.742 132 154 91
62.525 9.562 -0.448 128 117 118
83.205 2.544 3.630 116 138 70
99.655 7.985 0.054 134 126 112
58.101 54.259 -1.419 81 124 47
140.907 72.926 2.421 133 122 136
110.350 70.208 -2.407 127 144 91
85.799 58.581 0.343 185 141 104
80.719 58.292 0.393 129 103 146
89.578 24.408 -0.397 123 137 121
58.179 35.200 0.707 150 140 103
144.077 15.844 1.301 157 120 98
120.426 49.094 -1.005 119 105 85
117.387 10.552 -2.040 148 163 99
19.693 29.479 1.033 183 109 75
54.648 30.900 -2.425 138 102 90
26.485 38.356 2.793 166 112 110
99.147 23.153 -2.542 158 117 124
66.063 74.827 1.147 142 122 96
29.509 38.335 1.748 149 103 99
116.432 2.571 -1.226 183 115 86
148.689 30.026 0.187 140 121 97
103.269 34.036 -0.974 159 127 86
35.122 39.245 0.463 165 142 125
45.480 62.840 -3.419 170 148 99
52.797 54.490 -1.476 153 159 55
69.451 41.690 1.999 207 119 106
122.797 19.213 -2.670 194 117 94
41.090 0.135 -0.156 170 142 73
86.954 35.510 2.596 162 90 122
137.709 26.125 1.647 242 129 115
112.968 72.458 -1.921 143 156 89
83.406 52.353 1.562 166 137 108
81.812 20.878 0.640 128 132 89
125.235 69.113 -0.857 114 121 128
68.804 72.112 1.312 152 116 92
74.628 72.210 2.579 123 106 75
17.194 7.268 3.012 150 129 78
85.607 18.256 -0.029 188 120 95
50.281 34.539 -1.566 162 146 85
8.011 73.675 0.934 139 130 112
69.726 28.435 0.475 135 185 116
140.462 57.823 1.025 141 118 115
50.933 50.110 -2.038 145 132 126
146.537 26.422 0.747 141 134 83
84.613 15.573 0.519 186 80 116
121.989 70.773 -1.511 132 86 122
38.802 4.785 -0.254 136 115 88
99.093 50.126 -1.734 188 120 89
51.289 38.602 -1.027 153 126 98
112.508 43.957 -0.168 104 140 122
88.871 7.473 1.528 175 99 111
62.012 24.959 -3.887 76 76 76
29.638 61.535 -0.588 171 181 105
49.527 44.842 -0.583 146 114 114
137.101 44.309 4.518 188 138 122
58.049 2.409 0.942 149 138 59
112.245 0.507 -1.250 194 110 101
115.322 54.695 -2.142 116 156 50
96.650 13.637 -1.569 155 178 88
70.816 58.793 0.004 155 114 141
120.210 33.393 -0.447 152 144 79
4.225 3.767 1.857 186 116 70
56.403 23.748 -1.880 170 137 92
13.003 41.759 3.621 126 123 134
145.539 60.481 -0.177 165 114 70
132.281 19.561 -0.374 176 115 76
132.424 22.686 -0.600 155 151 117
39.943 0.129 -0.127 128 110 96
90.632 40.745 2.872 157 105 111
143.762 30.684 1.101 177 94 79
39.588 61.694 -2.874 171 122 136
63.441 19.714 -4.039 76 76 76
67.796 63.541 -0.028 183 126 83
139.735 23.729 0.838 147 69 115
23.018 33.124 1.870 181 148 77
53.943 53.905 -2.928 153 98 105
135.729 37.521 1.241 129 103 77
133.099 18.636 0.263 97 129 125
73.173 50.573 2.418 144 113 107
115.401 55.990 -2.132 148 128 99
76.827 71.904 1.542 163 81 78
72.725 40.146 2.767 173 120 105
108.338 13.762 -2.505 150 113 69
108.199 61.382 -3.126 155 30 85
141.084 61.414 0.112 137 132 102
131.921 63.915 -0.328 180 116 119
1.227 12.374 0.141 130 104 105
115.796 31.062 -2.146 149 101 101
1.453 7.806 1.467 170 99 109
23.838 24.218 0.425 157 143 43
95.353 45.263 0.602 145 137 105
15.667 16.923 0.601 173 130 89
121.544 10.059 -0.816 144 153 109
82.579 67.298 0.926 162 120 113
116.291 6.224 -0.610 128 131 148
144.957 34.530 3.321 200 143 101
75.283 17.855 0.057 155 147 124
11.373 73.707 1.811 140 158 125
135.682 7.932 1.294 164 116 117
142.874 30.348 1.947 97 137 74
19.420 37.860 2.082 89 98 87
140.712 32.811 2.613 143 128 104
68.674 38.371 1.697 168 115 98
3.278 73.790 0.806 185 100 90
113.741 66.518 -3.178 178 122 86
92.595 31.988 1.071 179 123 135
139.407 3.913 3.789 155 136 104
75.282 11.533 2.894 100 134 132
110.628 30.853 -1.492 106 117 70
34.577 50.813 -0.150 165 150 93
25.202 50.097 1.079 170 97 80
10.498 24.088 0.553 191 134 97
19.930 51.188 1.030 130 120 110
6.538 72.925 1.265 136 90 101
61.831 59.424 -0.836 170 126 98
145.822 73.961 2.478 164 124 75
22.146 34.506 2.838 150 157 85
125.387 5.270 0.047 142 81 122
99.595 40.308 1.094 147 81 103
36.597 26.958 -4.471 204 102 51
104.724 34.163 -0.489 188 126 114
48.019 6.480 -1.228 104 122 122
91.872 62.585 -1.228 130 128 82
7.391 54.654 1.474 160 139 76
38.599 53.391 -0.045 129 93 65
133.428 6.909 2.539 163 130 102
103.520 47.148 -0.868 154 130 64
126.154 2.235 1.593 157 126 80
96.726 66.340 -1.252 148 116 94
124.803 71.588 -0.013 180 109 64
6.747 55.314 0.449 149 141 118
109.181 62.934 -3.251 164 118 122
140.546 30.825 1.825 153 119 139
40.507 23.451 -4.974 204 102 51
45.151 56.839 -3.434 166 139 91
97.087 49.777 -0.706 146 106 56
139.885 72.533 1.813 193 113 143
20.995 21.014 0.348 138 164 108
31.877 74.575 0.473 182 175 107
2.472 18.367 -1.251 122 143 76
17.891 30.710 1.655 143 146 48
44.560 65.628 -2.763 153 124 97
59.267 31.334 -1.087 206 134 105
35.984 63.258 -2.571 155 103 115
148.372 27.467 0.656 139 114 108
125.255 60.092 -1.891 179 174 97
3.451 58.223 0.232 141 175 122
75.559 62.879 0.412 182 101 115
54.335 66.101 -2.359 175 166 98
117.539 58.122 -3.164 147 127 123
8.863 10.228 1.365 134 140 113
7.643 13.027 0.289 125 115 119
108.203 49.377 -1.108 144 89 76
144.906 10.277 1.490 127 138 83
85.473 46.416 2.733 164 138 102
41.221 10.587 -2.206 161 164 121
136.913 57.367 1.318 108 132 106
140.639 5.798 3.040 102 155 93
40.824 38.867 -0.540 161 101 135
96.616 35.926 -0.021 172 146 100
101.349 59.977 -2.436 155 141 106
81.648 45.245 3.519 166 126 134
115.628 36.537 -0.947 132 107 133
149.269 53.557 1.558 116 151 176
56.968 61.585 -2.492 148 156 113
8.397 30.661 0.538 133 131 96
111.422 30.675 -2.047 108 100 60
40.813 71.318 -1.647 133 180 128
9.070 23.802 -0.220 157 104 113
132.268 51.168 1.643 151 159 98
7.489 22.919 -0.383 128 112 77
147.751 16.254 0.031 211 86 111
79.503 7.513 2.551 139 130 93
134.350 72.519 0.141 150 134 49
42.357 3.171 -0.899 159 127 139
116.538 17.777 -2.595 115 105 97
125.676 58.537 -1.640 141 98 79
113.546 47.905 -1.936 193 116 135
75.584 7.096 2.606 169 118 77
145.097 21.397 -0.665 138 117 80
117.220 14.596 -3.343 166 121 175
79.055 32.423 4.606 178 153 127
96.113 4.681 1.594 166 123 91
62.632 52.011 0.611 136 134 113
89.308 33.362 1.425 169 102 132
139.843 17.852 0.758 173 160 96
139.737 33.920 1.832 213 106 108
53.911 72.510 -1.921 192 123 120
148.351 55.873 0.531 136 122 91
131.374 42.024 3.847 176 125 66
63.067 19.319 -3.615 76 76 76
108.485 28.195 -2.825 151 141 123
62.031 65.606 -1.911 125 110 112
114.031 22.897 -2.784 144 136 113
78.521 17.182 0.128 154 118 96
91.847 55.510 -0.211 132 125 137
114.744 69.575 -3.323 133 94 88
39.877 56.424 -1.829 193 159 74
138.222 34.484 2.942 152 149 101
41.363 27.141 -4.373 204 102 51
55.805 59.103 -2.519 127 168 102
148.682 43.697 4.182 148 85 101
102.628 19.321 -2.292 166 150 108
81.507 63.942 0.311 125 129 107
44.431 69.713 -2.803 189 120 86
101.754 62.554 -2.858 144 150 105
90.367 46.388 2.216 157 150 79
19.203 23.446 -0.179 125 128 42
51.251 23.223 -3.016 144 92 56
100.234 5.732 -0.150 188 164 119
40.240 37.031 -0.825 118 93 127
45.674 1.467 0.058 116 90 91
140.175 53.793 1.615 134 127 103
84.963 13.884 1.133 153 150 149
119.454 3.462 -0.262 167 137 124
131.119 39.649 1.716 115 95 103
114.747 49.246 -1.025 164 126 89
93.968 39.498 1.884 167 114 96
78.101 37.954 3.692 180 114 92
56.637 34.756 -1.070 176 139 101
77.368 64.373 -0.293 211 123 129
71.421 73.281 1.047 129 157 50
9.593 42.424 3.664 160 134 79
49.326 46.942 -0.654 150 93 87
116.888 35.030 -0.165 170 120 132
4.520 0.374 2.572 146 140 102
34.920 8.340 0.094 154 116 103
71.762 52.657 1.295 167 116 111
1.675 34.684 0.587 195 131 99
65.239 49.239 1.143 139 136 93
51.225 12.457 -2.585 176 131 106
105.039 69.330 -2.874 154 130 85
20.752 7.536 2.499 147 142 89
55.568 8.730 -0.679 137 115 162
62.206 5.927 0.248 141 135 82
111.685 72.345 -2.954 192 178 79
143.653 67.752 1.637 182 106 97
68.749 43.338 3.211 144 161 116
57.539 19.785 -2.354 151 137 106
97.696 45.599 -0.176 126 148 98
126.407 23.049 -2.214 144 144 84
32.267 23.962 -2.239 204 102 51
134.569 4.120 3.673 174 107 80
143.596 33.896 3.238 113 168 80
21.989 52.237 1.248 150 118 111
66.336 22.047 -1.125 157 169 74
14.486 19.943 -0.148 150 118 135
16.292 55.186 1.616 151 145 78
142.575 73.337 1.768 179 144 75
105.599 17.966 -3.277 162 149 109
50.574 4.462 -0.815 173 120 100
27.644 48.832 1.231 136 144 78
43.921 28.327 -4.298 204 102 51
101.319 16.977 -2.584 158 137 81
84.758 37.868 3.359 146 171 114
74.702 62.563 0.196 186 151 141
25.530 43.010 3.250 168 134 105
45.702 36.590 -0.707 89 147 134
8.017 72.460 1.305 133 147 82
31.933 68.708 -0.890 122 154 136
35.444 18.463 -2.445 164 127 83
133.992 23.551 0.586 164 138 132
28.203 22.031 -1.083 117 66 83
3.617 30.031 -0.308 150 124 95
50.995 30.301 -2.782 193 117 81
25.143 27.989 0.416 161 133 117
24.797 41.205 3.069 174 171 85
123.314 41.815 1.844 166 171 126
70.310 42.718 2.563 127 94 78
99.683 64.160 -3.281 171 95 64
142.698 63.615 -0.114 122 105 88
52.698 11.961 -2.247 152 128 92
118.233 7.838 -1.034 168 101 134
72.312 71.988 2.081 168 141 98
65.935 61.773 -0.963 138 106 133
69.579 19.538 -0.594 119 137 77
0.954 39.933 2.033 158 148 72
136.749 67.382 0.528 142 127 77
54.135 15.840 -2.812 142 126 118
105.462 18.999 -4.185 103 139 45
56.033 73.686 -1.462 141 120 78
148.089 48.074 1.834 173 123 85
94.977 41.630 1.579 121 117 70
43.870 41.503 -0.606 159 101 99
111.811 71.782 -2.183 120 129 115
4.408 16.337 -1.120 94 100 121
102.105 46.960 -0.750 163 94 103
24.143 70.640 0.515 161 114 81
59.812 68.790 -2.511 176 166 142
7.840 55.415 0.588 182 103 74
45.702 18.010 -2.529 197 110 86
97.145 45.896 -0.180 115 122 56
6.858 11.049 0.833 180 98 100
6.494 23.616 -0.628 106 125 94
0.420 5.223 0.468 112 113 138
102.168 38.771 0.096 130 145 86
104.600 74.693 -0.971 97 76 88
87.249 30.624 1.874 180 124 88
11.834 33.880 2.248 169 105 118
44.994 66.170 -3.447 164 145 119
53.671 19.395 -2.537 160 155 153
63.498 45.991 0.808 143 138 76
9.071 18.240 -0.288 109 140 86
95.391 44.200 1.847 175 153 129
108.709 4.903 -1.700 148 156 139
39.428 26.410 -4.009 204 102 51
143.966 35.267 2.805 167 113 88
82.799 58.974 0.804 167 139 107
74.793 27.496 0.586 136 125 116
15.179 69.401 0.467 142 135 78
16.975 17.193 0.347 184 124 87
135.935 65.704 0.947 143 147 46
24.481 68.369 0.590 85 177 88
91.914 33.706 0.625 174 90 127
94.629 2.983 2.208 162 109 106
137.094 54.964 0.465 152 121 94
147.851 35.195 2.728 165 131 100
71.867 3.195 2.892 141 168 94
132.630 43.897 2.755 172 117 117
148.323 17.730 0.026 132 120 81
77.728 74.969 2.442 120 150 56
76.315 33.037 5.385 178 153 127
81.774 66.362 0.738 158 155 125
20.304 26.782 0.945 166 111 117
96.740 16.447 -1.236 146 130 100
74.591 35.969 2.098 147 99 62
8.519 61.685 -0.213 145 150 88
146.941 2.267 3.268 119 132 101
98.946 2.410 1.318 194 124 103
31.257 59.355 -2.458 201 129 83
89.902 50.676 1.422 176 94 125
54.928 15.961 -3.063 165 94 89
120.397 25.095 -1.368 151 125 92
20.531 55.812 0.587 150 157 64
45.255 6.343 -1.001 150 149 147
11.101 9.731 1.532 83 90 135
87.119 24.824 -0.948 166 170 116
78.771 6.313 2.929 158 183 110
130.337 12.743 0.246 108 110 132
45.423 56.538 -2.744 130 209 110
42.737 10.804 -2.530 185 113 136
22.018 65.785 0.137 140 99 104
117.737 63.049 -3.142 161 125 118
69.434 66.061 0.235 175 150 130
70.218 9.158 1.933 131 88 95
54.758 0.937 1.283 164 112 84
41.186 19.721 -4.135 166 160 130
88.447 53.776 0.971 157 109 55
81.364 68.357 0.039 210 102 103
25.980 35.901 2.352 148 99 101
19.934 24.251 -0.253 143 107 174
81.354 22.310 0.848 196 168 105
105.263 53.786 -2.345 186 103 99
94.683 31.580 -0.018 193 119 109
4.814 55.128 1.042 139 89 62
119.028 12.417 -1.553 146 102 82
34.226 64.374 -2.794 180 119 112
56.378 32.190 -1.048 114 129 104
70.259 19.565 -1.236 138 119 110
54.812 37.035 -0.348 131 111 130
0.915 50.787 0.198 157 127 100
10.205 59.060 0.763 107 110 101
146.948 62.154 0.180 164 144 163
116.992 5.892 -0.062 188 119 89
41.813 63.679 -3.543 133 139 97
62.620 9.777 0.463 126 111 60
62.365 62.913 -1.711 174 144 112
145.414 38.150 2.367 132 142 98
15.955 23.123 1.011 156 151 62
84.826 65.078 0.328 145 125 132
97.741 4.944 1.122 163 126 83
26.752 74.436 0.222 173 106 55
61.967 51.702 0.074 158 129 132
103.768 54.235 -1.225 160 103 97
96.215 49.957 0.032 196 124 67
29.616 45.818 1.345 166 113 102
130.258 40.454 3.063 119 135 66
37.089 50.041 -0.441 142 163 123
120.603 32.371 0.130 182 136 115
123.369 67.036 -1.643 177 132 131
3.903 53.736 -0.411 173 166 111
64.689 9.092 1.052 104 124 98
34.147 17.474 -1.910 207 172 63
63.581 35.420 -2.233 76 76 76
92.251 6.798 2.069 148 122 106
95.533 60.541 -0.960 158 129 72
145.956 61.544 -0.402 117 99 64
54.502 47.905 -0.672 174 118 121
64.735 48.700 1.037 118 182 107
120.351 14.130 -2.059 119 125 97
68.267 36.448 1.197 188 88 85
99.751 12.413 -1.431 183 190 152
137.351 11.265 1.274 102 133 116
122.397 33.030 -0.651 170 95 153
138.197 44.043 3.749 128 163 87
110.100 31.748 -2.331 174 141 84
101.948 64.123 -3.197 173 113 102
21.330 14.045 0.974 145 82 133
89.941 5.589 1.761 138 98 130
97.871 25.546 -1.550 135 118 131
65.185 20.378 -0.042 165 140 142
59.140 68.439 -1.766 169 129 73
135.770 54.258 2.080 112 163 98
88.750 53.499 0.521 127 125 87
119.139 42.019 0.507 182 157 156
102.916 21.991 -3.737 144 126 122
31.176 50.375 1.495 175 138 98
28.457 13.222 -0.103 207 96 98
76.569 6.283 3.034 150 88 121
60.337 17.293 -4.672 76 76 76
55.424 56.864 -2.605 133 124 126
121.675 54.074 -0.506 162 154 100
113.838 53.458 -2.123 132 105 62
15.377 44.279 3.685 129 140 101
15.631 2.295 4.281 173 126 110
96.960 27.629 -1.252 130 118 115
38.237 43.401 -0.124 164 127 123
12.429 29.176 1.349 162 96 145
112.262 0.631 -0.787 129 127 131
119.970 45.683 0.452 175 114 49
133.110 21.654 -0.851 118 102 108
1.939 68.264 -1.117 204 97 107
109.015 38.247 -1.110 99 113 65
14.360 2.801 3.095 103 142 58
89.877 59.548 0.038 132 67 112
8.744 57.717 -0.041 167 115 92
104.648 16.662 -1.546 131 96 87
16.631 11.512 1.896 101 145 83
81.826 19.407 0.080 151 139 142
18.923 34.106 2.540 133 188 97
138.310 4.132 2.717 116 105 86
108.802 70.642 -2.947 144 154 122
11.464 6.170 3.046 122 96 139
133.910 26.845 1.432 156 121 121
12.438 39.497 4.090 157 162 121
144.642 49.732 2.742 154 129 101
87.757 31.627 1.324 146 89 117
122.559 58.316 -1.461 141 157 73
40.438 4.236 -0.236 165 135 48
23.273 51.819 1.547 147 105 110
41.447 61.239 -2.962 107 147 66
15.474 13.484 1.190 129 155 99
139.916 40.673 3.159 129 140 70
76.846 54.676 1.762 161 147 116
9.750 37.009 2.750 148 113 123
67.900 20.358 -0.496 198 134 69
147.942 33.458 2.001 176 134 103
18.185 28.154 1.236 177 148 40
32.228 37.406 0.891 151 144 123
20.656 12.245 0.846 152 178 114
72.478 49.322 1.803 153 140 125
91.214 32.731 0.598 139 154 119
78.778 38.617 3.393 159 111 98
1.466 4.366 1.939 153 137 136
103.940 35.452 0.298 178 146 54
137.506 34.805 2.799 186 160 104
27.121 16.228 0.343 162 123 94
102.686 50.056 -0.310 134 87 101
127.198 15.523 -0.383 113 115 111
68.118 25.084 -0.077 157 166 118
71.479 12.516 0.743 178 95 88
14.785 44.305 3.546 93 135 81
144.529 41.147 3.314 182 126 71
72.396 63.207 0.877 148 165 107
2.097 16.489 -0.067 90 186 87
113.871 27.155 -2.987 115 91 81
108.878 64.545 -3.624 191 155 131
145.009 72.174 1.527 167 113 108
70.983 7.285 1.597 107 158 99
5.801 12.807 1.788 205 89 136
96.974 45.902 0.996 164 144 131
69.954 20.386 -0.873 177 143 75
93.104 57.545 -1.284 165 127 125
50.908 39.752 0.069 164 141 140
132.317 14.397 -0.014 128 107 114
15.598 9.186 3.030 140 101 29
136.747 22.201 0.767 149 110 96
110.045 14.474 -3.163 144 130 100
3.411 44.406 2.479 179 125 94
75.845 0.799 2.688 154 146 116
5.831 48.276 1.387 166 103 81
126.132 43.195 1.130 177 81 63
27.761 42.354 2.073 130 89 115
56.159 19.196 -2.992 157 135 82
85.975 36.393 1.998 178 99 83
46.383 44.212 -1.186 141 127 127
86.832 62.853 -0.337 155 119 119
41.563 42.736 -0.106 129 113 129
27.761 45.611 1.128 183 130 132
66.194 70.446 -1.135 167 181 73
118.389 36.194 1.037 127 110 97
125.863 20.558 -2.124 134 141 79
67.025 10.220 1.116 168 145 110
1.717 56.546 -0.566 168 125 142
38.975 65.522 -2.685 198 105 36
78.091 5.773 3.040 212 78 116
71.232 28.514 1.336 168 129 179
128.663 63.310 -0.921 142 193 114
68.760 8.126 1.903 159 122 125
85.843 74.081 1.711 134 108 162
96.978 16.485 -1.158 133 113 105
140.804 22.589 0.605 178 147 113
17.798 45.649 3.634 173 124 71
135.321 7.273 2.313 146 78 145
132.063 29.386 0.947 138 110 46
17.853 66.765 0.798 142 139 87
74.599 73.651 2.224 114 127 122
75.906 55.047 1.456 205 99 126
5.747 71.441 0.882 202 163 107
85.148 56.210 0.215 158 133 89
24.601 52.005 1.654 134 153 146
135.583 65.470 0.003 151 99 114
103.573 50.301 -0.737 134 138 90
11.854 60.441 0.587 166 114 79
71.922 58.818 0.973 168 116 99
139.504 60.519 0.297 173 138 137
15.697 55.123 1.771 171 120 101
82.830 12.229 1.191 135 129 104
64.451 6.507 1.239 138 90 114
148.564 65.482 -0.135 158 91 110
67.896 13.282 0.171 146 186 117
62.689 32.934 -1.905 76 76 76
138.854 41.507 3.465 192 112 102
67.953 61.592 -0.544 175 194 64
