7.042 0.589 2.712 140 98 119
56.081 45.871 -0.576 186 121 94
28.838 5.656 1.249 160 164 103
92.119 9.121 0.482 186 108 102
14.682 15.615 0.767 171 138 95
95.195 38.508 1.907 142 125 110
58.890 26.239 -2.181 194 105 77
69.981 5.140 2.128 181 191 45
25.459 0.028 2.574 142 105 81
7.713 9.395 1.381 162 97 117
53.173 8.671 -0.793 124 165 97
14.370 33.111 2.771 192 101 106
85.050 22.214 0.125 182 120 60
14.269 24.533 0.317 184 185 77
52.049 12.392 -2.033 184 87 127
68.800 9.641 1.596 148 67 107
93.338 40.537 2.652 164 139 110
98.911 48.385 0.007 146 58 59
4.179 24.879 -0.227 133 109 79
70.826 45.386 3.293 124 132 134
50.335 28.836 -2.792 130 157 51
8.859 34.716 2.554 155 117 44
71.913 2.485 3.298 132 106 142
23.101 29.986 1.218 157 141 129
97.069 1.536 0.512 96 142 93
83.323 28.029 0.564 155 139 98
68.337 7.940 2.271 140 137 102
10.670 47.805 3.077 161 126 82
53.191 1.068 0.045 215 158 70
3.950 17.991 -0.366 166 93 121
80.766 26.400 0.520 165 156 104
95.905 25.782 -1.603 165 134 67
16.520 9.545 2.258 144 152 79
49.219 43.452 -0.771 156 119 116
38.917 34.667 -0.473 130 146 137
71.605 45.091 2.215 117 155 131
91.015 17.368 -0.849 187 124 75
80.497 36.415 2.992 155 151 141
85.003 36.162 2.858 145 99 146
5.113 39.713 1.038 179 139 78
49.268 13.135 -2.564 200 172 69
57.972 43.872 0.782 153 147 83
98.983 14.562 -0.958 149 121 74
80.176 25.955 0.992 192 114 103
47.274 32.266 -2.242 161 146 122
73.271 46.111 3.235 186 150 57
57.297 38.243 1.677 129 107 105
64.888 47.113 1.893 92 78 148
56.866 8.720 0.002 141 83 76
46.653 45.516 -0.672 133 103 68
6.809 4.454 1.661 169 174 113
58.212 34.460 -0.257 102 138 91
38.436 13.238 -1.460 162 114 122
99.386 3.236 0.264 161 172 104
74.400 27.704 1.468 156 142 96
52.715 34.452 -0.508 135 140 101
89.295 31.847 1.017 150 114 83
2.700 28.629 -1.042 149 153 90
50.119 41.177 -0.312 149 134 94
13.577 36.593 3.015 176 168 88
12.432 42.679 4.103 149 123 40
99.919 48.424 0.517 200 113 87
86.072 48.632 2.181 149 141 85
12.031 21.450 0.029 117 123 144
80.117 5.868 3.145 121 76 129
69.706 41.171 2.460 139 154 97
43.340 21.235 -2.948 187 155 48
81.713 38.593 2.177 163 108 83
20.579 44.548 3.738 161 152 104
87.756 40.668 2.656 156 96 126
17.571 11.154 2.124 137 124 93
77.279 19.369 0.945 172 154 145
15.505 19.296 0.378 112 126 106
67.216 33.966 0.695 186 85 66
21.377 13.169 0.228 132 110 98
12.701 35.127 2.471 179 122 113
86.998 8.431 1.156 129 106 86
93.877 39.926 1.576 125 73 123
21.890 1.723 2.867 161 106 56
93.837 31.385 0.576 201 118 147
82.085 42.145 4.017 141 69 64
8.096 12.732 0.060 94 168 60
92.157 1.779 1.962 178 175 83
44.892 25.464 -3.508 149 130 134
18.285 35.989 3.132 160 137 138
21.146 49.620 2.202 142 156 96
51.795 11.363 -1.053 106 137 121
41.744 35.204 -0.686 171 122 122
12.400 26.308 1.321 129 124 40
21.394 21.741 0.507 122 111 111
32.247 3.857 0.240 168 150 100
73.113 33.384 1.981 167 142 94
16.256 7.974 2.774 181 163 102
0.501 36.316 1.166 175 169 147
75.718 25.501 0.388 178 115 82
80.877 19.538 0.531 119 104 62
98.107 24.365 -2.135 113 186 115
93.815 37.971 1.264 145 121 97
49.272 19.400 -3.439 167 107 152
44.383 9.392 -1.611 141 76 84
78.527 39.596 3.513 164 104 124
7.013 3.415 2.983 209 121 152
48.152 43.040 -0.777 133 127 92
44.020 17.519 -2.778 139 138 76
16.511 7.714 2.838 152 139 93
28.582 35.178 0.723 127 120 104
63.739 12.254 0.490 167 148 147
68.664 36.033 2.187 162 26 109
65.995 36.724 1.875 121 88 76
54.505 31.220 -1.188 150 144 109
30.181 29.266 -0.202 177 129 75
45.251 26.116 -2.679 184 103 143
25.772 9.633 0.748 138 142 132
51.239 41.876 -0.503 156 116 128
84.395 28.611 0.829 142 101 59
5.786 47.214 2.070 128 116 95
94.738 6.308 0.793 164 77 67
94.540 26.392 -0.631 168 130 95
57.528 15.453 -1.852 139 124 88
55.182 6.685 -0.500 119 105 140
61.238 26.967 -1.057 108 116 112
3.557 22.146 -1.682 164 147 79
86.286 42.134 2.806 139 150 95
37.570 36.837 -0.971 115 111 104
98.771 47.732 -0.250 170 150 117
97.631 32.656 0.540 132 130 121
5.842 24.877 0.257 165 153 36
17.739 40.753 3.580 168 87 102
54.434 41.386 0.349 175 135 45
80.108 23.944 1.411 103 124 131
53.759 27.880 -3.345 158 88 101
58.788 12.009 -2.052 164 176 113
61.318 42.044 1.011 157 134 114
31.350 15.162 -1.083 157 175 66
68.632 48.195 2.022 130 153 64
45.691 45.808 -1.413 135 129 92
4.364 45.885 2.931 154 66 97
36.817 8.003 0.255 177 103 65
63.544 45.079 1.302 162 184 178
2.968 9.389 1.193 149 124 101
51.629 3.908 -0.437 124 144 59
56.411 46.886 0.473 96 136 117
87.376 6.729 2.693 193 164 108
29.678 37.946 0.663 138 102 84
14.795 38.260 3.430 147 159 88
88.700 39.077 2.597 135 102 113
36.924 18.538 -3.077 162 159 108
98.259 47.448 0.229 202 130 75
35.533 49.586 -1.081 190 139 149
62.603 23.738 -1.109 147 131 137
44.258 13.748 -3.033 180 114 94
81.280 28.735 0.895 132 125 131
17.083 20.550 0.247 153 167 83
67.249 14.336 0.619 113 129 79
3.966 16.065 -0.172 156 111 99
27.140 49.151 1.886 145 154 99
54.382 25.400 -1.890 160 105 92
29.038 29.007 0.092 151 130 112
65.030 26.353 0.593 115 128 128
68.774 24.555 0.876 156 115 79
24.697 30.186 1.102 173 118 132
65.223 28.046 -0.796 127 145 92
75.161 12.460 0.245 156 113 91
36.321 41.129 0.739 138 84 64
9.734 44.034 2.809 145 96 78
65.270 48.260 1.088 128 160 115
90.263 6.821 2.203 139 89 108
78.532 10.394 1.916 160 115 99
13.115 13.977 1.496 145 182 102
92.737 11.233 0.264 134 151 91
53.362 43.377 -0.258 154 135 62
52.107 28.041 -2.826 146 147 95
7.544 33.276 1.226 157 144 113
87.964 32.076 1.706 174 128 83
4.375 1.074 2.416 182 127 89
34.047 18.230 -1.787 121 110 44
75.854 34.902 2.654 152 167 101
61.774 32.872 -0.347 124 67 97
27.086 46.162 1.685 222 169 80
77.545 43.279 2.891 160 144 117
53.163 34.865 -1.160 140 92 111
86.553 39.411 2.988 137 105 66
26.968 27.393 -0.182 129 175 124
65.936 5.492 1.636 229 168 115
64.078 0.432 2.573 130 138 97
45.625 37.982 -1.003 134 135 137
3.557 31.828 1.813 126 121 70
30.964 14.709 -0.119 150 157 103
37.136 3.676 0.536 139 142 98
16.595 11.355 0.976 122 154 145
98.219 2.784 0.143 191 109 93
72.972 9.408 1.820 140 147 114
27.165 46.511 2.291 139 161 111
5.159 21.162 -1.844 169 123 23
13.299 6.900 3.248 144 119 97
21.366 24.616 1.630 193 135 140
23.085 1.016 2.825 148 100 85
17.415 47.115 2.617 122 124 119
38.303 21.484 -2.746 131 192 117
4.055 7.078 1.370 145 129 122
26.014 16.097 0.008 131 134 87
29.308 37.673 1.398 148 119 133
16.965 46.416 3.466 171 132 109
66.427 5.875 1.286 146 172 104
40.626 15.781 -2.205 218 85 102
74.615 48.817 2.938 181 185 103
67.515 12.054 0.289 136 138 88
12.469 11.088 1.655 167 158 137
52.844 24.632 -1.704 145 169 45
28.498 17.969 -0.605 146 110 145
38.030 29.016 -1.572 188 117 107
85.599 22.534 -0.657 163 117 131
15.175 17.236 0.857 183 81 70
18.902 13.940 0.861 132 81 123
17.258 3.991 2.678 187 145 107
6.946 11.787 0.989 160 100 111
3.871 47.647 1.264 184 124 123
87.698 1.664 2.087 178 125 121
86.958 34.128 2.265 153 120 104
96.745 9.796 -0.466 183 120 110
86.637 39.783 2.098 137 124 105
57.464 1.511 0.551 207 127 100
74.267 3.319 3.406 126 102 91
31.704 12.740 -0.337 182 146 90
8.913 42.524 2.706 165 148 126
39.375 1.382 0.381 170 133 117
28.836 19.507 -1.098 189 105 94
71.475 46.798 2.812 176 146 84
83.766 19.402 0.046 124 144 96
37.711 37.091 -0.232 154 117 85
31.692 40.062 1.689 133 96 143
11.296 28.410 0.802 187 169 105
26.471 17.042 -1.105 170 119 99
72.431 42.644 2.349 111 98 89
12.322 1.246 3.086 132 118 93
1.109 14.502 0.293 131 59 94
12.859 14.734 0.210 194 129 24
17.599 36.112 3.013 160 163 117
64.639 48.279 1.011 151 81 85
42.639 2.639 0.152 166 201 76
35.526 19.558 -2.567 144 180 106
49.893 7.892 -0.892 174 146 117
19.361 33.903 1.400 128 121 98
27.302 47.425 1.379 145 131 99
76.754 29.014 1.377 149 165 83
47.317 34.521 -0.745 171 138 80
53.710 48.150 -0.165 102 89 60
24.132 22.003 -0.285 148 151 157
86.739 48.248 2.147 164 126 113
34.960 17.708 -2.417 129 135 120
36.148 34.512 0.622 108 103 96
24.590 45.522 2.677 133 114 100
12.568 16.897 1.175 154 119 145
82.111 20.730 -0.646 107 147 71
31.528 35.273 1.188 173 103 78
4.997 19.472 -0.659 166 146 108
14.418 23.164 0.247 122 102 114
40.114 45.497 0.326 163 139 121
73.906 23.311 0.378 111 122 138
84.671 39.552 3.238 169 121 126
37.954 31.295 -2.084 131 126 103
8.602 21.553 -0.048 176 146 121
48.964 43.425 -0.914 128 140 61
48.370 9.179 -2.159 167 114 97
9.341 26.929 0.584 129 165 127
43.690 4.537 -0.237 147 127 147
86.920 29.148 -0.372 162 73 123
13.787 13.366 1.779 146 108 76
28.012 9.762 1.232 149 46 119
66.883 11.605 1.322 150 145 119
63.531 32.396 0.071 151 145 106
77.804 16.751 0.755 180 178 67
81.366 39.826 3.606 158 124 96
79.452 9.032 2.666 161 142 126
74.281 15.621 -0.054 159 157 108
9.392 39.044 3.204 126 99 75
32.341 13.340 0.160 141 117 85
31.787 10.350 -0.309 164 155 128
47.131 22.458 -2.864 171 150 120
52.600 30.362 -1.246 160 117 94
30.165 5.363 1.261 159 180 85
52.100 18.829 -3.385 177 103 178
46.667 23.102 -2.550 126 94 102
83.262 10.338 2.172 131 111 100
43.105 25.265 -2.911 136 132 71
87.159 5.105 2.158 169 141 114
97.653 29.878 -1.447 188 125 129
93.167 15.885 -0.931 141 144 110
11.337 45.751 2.340 153 147 97
70.237 20.941 -0.447 154 102 100
6.166 13.989 0.751 194 152 156
73.595 36.201 3.405 125 133 91
21.074 47.739 2.803 118 97 100
97.304 42.201 1.220 169 165 79
16.557 8.845 2.598 162 143 100
42.494 12.159 -2.608 140 99 103
95.332 15.927 -1.057 159 134 75
16.481 37.860 2.971 146 159 131
4.995 1.166 2.963 118 124 66
33.260 35.863 1.168 146 118 138
36.678 46.838 -0.252 172 107 104
56.394 7.155 -0.419 138 128 115
89.829 21.595 -0.539 115 166 81
55.811 7.450 -0.455 140 120 89
32.873 10.849 -0.309 153 118 134
79.356 30.010 1.717 120 102 81
65.069 5.167 1.672 152 116 116
96.677 16.882 -1.962 182 171 105
2.493 40.154 1.760 128 129 71
93.111 23.706 -1.752 117 183 103
88.760 35.676 2.743 121 105 87
86.427 47.530 2.916 118 144 85
8.935 41.101 2.968 175 93 68
7.072 45.092 2.297 122 141 128
7.879 2.349 2.479 159 103 87
5.441 20.175 0.164 133 153 66
18.947 18.862 0.539 157 168 114
49.274 4.812 -0.418 166 86 126
26.902 40.600 1.284 191 164 128
42.918 28.986 -2.421 139 129 85
92.636 25.627 -0.364 145 169 70
95.643 44.428 0.493 98 126 100
13.129 40.434 3.336 185 122 103
93.944 26.225 -0.966 116 141 133
44.607 36.219 -0.442 127 111 69
39.321 16.326 -2.498 138 125 108
76.012 24.614 1.549 91 193 125
38.679 10.718 -0.866 160 118 111
89.178 30.919 0.947 193 151 81
34.632 13.989 -2.464 166 81 69
39.358 49.169 -1.302 174 136 71
49.423 26.645 -2.728 116 129 136
45.209 19.873 -3.081 140 125 108
94.320 45.512 1.405 128 107 68
13.945 19.443 0.187 188 104 66
54.089 23.886 -2.981 175 101 108
68.569 49.039 2.691 154 113 125
13.490 23.960 0.575 146 121 80
36.831 15.226 -2.075 224 124 51
93.814 34.821 0.156 146 170 121
82.694 20.957 0.282 125 136 50
46.832 39.040 -1.576 181 140 89
71.639 11.983 2.257 161 127 173
27.739 47.395 1.715 133 96 148
68.585 32.217 2.020 183 139 91
45.765 17.339 -4.088 153 136 69
63.589 27.909 -0.656 175 134 123
37.236 43.592 0.689 114 103 129
87.968 9.717 2.175 109 138 108
28.019 2.103 2.282 136 127 131
39.795 48.093 1.038 137 162 114
25.402 40.462 2.644 164 128 142
81.089 2.379 3.065 119 105 123
98.524 34.766 -0.827 176 106 55
28.515 45.992 1.700 144 82 122
87.657 46.276 1.583 123 95 101
18.879 2.360 3.535 104 127 72
97.100 3.477 0.739 161 175 101
68.880 6.145 1.990 129 140 60
45.125 22.143 -4.122 112 139 91
84.737 39.327 3.866 175 132 91
40.980 28.531 -1.664 150 146 96
8.244 3.819 2.485 183 149 132
77.662 23.520 0.232 172 164 90
40.914 11.321 -1.056 125 101 123
90.694 18.907 -0.428 175 119 83
72.660 44.765 2.627 176 95 83
5.629 17.484 0.527 133 140 113
61.822 9.533 0.016 176 140 145
29.904 18.966 -1.203 152 156 93
33.275 17.483 -1.262 120 116 84
14.887 6.699 1.933 115 132 121
61.966 10.783 -0.373 198 124 51
75.908 0.057 3.934 110 127 107
56.994 29.425 -1.852 138 121 95
34.747 42.757 0.233 155 111 132
15.084 47.158 3.376 126 126 105
58.259 16.013 -2.635 184 110 102
45.313 48.844 -0.743 113 139 105
84.051 5.829 3.139 170 91 120
35.891 41.001 0.870 154 114 103
14.973 29.806 1.585 168 138 89
23.586 28.850 1.178 124 109 108
16.330 40.728 3.903 105 116 94
27.156 35.155 1.987 156 170 112
29.438 20.062 -0.439 131 155 125
23.315 38.545 3.598 128 86 174
74.414 43.546 3.068 92 132 102
2.688 35.577 1.359 176 151 152
43.757 39.707 -0.982 153 82 122
28.980 8.874 0.836 130 88 123
76.453 31.692 1.917 71 120 145
90.813 47.788 1.193 143 90 70
79.951 28.712 1.377 158 102 124
88.741 48.486 1.972 131 50 126
17.359 0.272 4.112 138 141 106
9.937 30.326 0.676 193 158 120
40.496 6.929 -0.224 165 61 122
36.949 37.400 0.653 159 129 96
39.476 1.640 -0.246 151 101 84
6.324 23.224 0.583 154 127 137
56.864 9.228 0.337 147 113 61
33.867 1.609 0.356 151 150 136
87.377 46.668 2.119 119 100 103
90.029 49.267 1.423 178 153 68
22.277 10.637 1.137 134 137 133
33.770 5.930 0.188 181 109 103
44.170 2.427 0.803 183 139 92
23.119 20.088 -0.671 150 144 101
15.484 5.949 2.359 123 123 125
30.574 6.847 0.493 143 111 106
59.685 21.146 -2.325 175 153 109
10.974 49.930 2.457 165 145 136
7.413 5.876 1.822 175 150 91
89.319 42.200 2.407 123 137 54
60.469 8.391 0.588 134 159 93
77.362 20.396 -0.151 146 97 84
75.679 28.225 1.017 121 139 102
94.636 47.674 0.369 154 136 103
35.647 40.074 1.108 165 107 118
2.263 13.470 1.200 196 125 87
81.337 17.559 0.654 145 140 73
44.181 11.927 -1.453 116 116 75
68.549 22.178 -0.590 189 130 91
36.127 41.740 0.318 193 154 116
30.433 24.696 -1.274 113 132 144
12.207 10.995 1.886 103 124 87
56.946 28.663 -2.352 149 145 111
86.246 26.439 0.589 125 140 91
48.511 11.390 -3.087 121 120 87
54.496 42.357 0.494 175 136 122
40.024 0.287 -1.046 172 80 89
20.795 48.149 2.544 159 107 79
70.127 20.176 -0.142 122 126 121
30.278 3.959 1.711 141 86 97
88.156 34.748 1.759 129 153 101
23.944 25.867 0.403 133 162 110
46.930 38.471 -0.184 141 137 26
77.687 36.486 2.599 151 106 112
30.576 5.113 0.622 166 139 128
2.823 8.296 1.993 162 181 111
69.929 31.450 0.456 114 141 89
38.669 23.943 -1.739 159 120 81
33.189 0.949 0.211 116 151 94
83.116 45.792 4.134 143 130 103
38.163 5.168 -0.485 145 116 157
26.490 34.652 2.099 134 112 93
20.924 32.434 2.763 113 148 64
56.857 16.571 -3.224 169 141 72
75.912 25.594 -0.144 87 117 128
33.702 27.221 -1.603 162 108 68
9.907 24.155 -0.525 121 120 146
59.469 27.857 -1.501 154 101 95
69.423 5.205 1.776 133 65 77
86.311 6.799 2.562 164 131 62
54.151 49.874 -1.257 107 152 119
83.139 13.354 0.643 151 151 50
28.701 2.819 2.073 172 85 79
37.045 14.796 -1.918 98 87 116
32.075 35.049 1.148 175 151 116
62.619 3.368 1.178 162 137 133
60.389 14.849 -2.053 152 124 77
33.459 43.329 1.863 148 171 97
59.831 3.444 1.684 80 135 94
77.671 1.660 3.260 177 134 114
17.497 43.336 3.169 170 147 118
68.197 6.736 1.093 179 91 94
96.599 12.832 -1.540 154 125 123
64.473 16.967 -0.609 174 124 81
81.043 27.593 0.767 96 128 110
73.165 1.950 3.223 178 118 89
18.735 19.232 -0.502 158 63 95
37.420 20.392 -2.696 169 141 135
67.592 24.829 -0.142 147 129 114
29.412 13.423 -0.966 166 172 93
6.790 3.134 2.079 176 123 98
82.392 19.945 0.294 156 128 132
24.159 12.770 1.341 152 142 114
24.566 41.704 2.344 193 103 60
95.196 6.035 0.250 105 167 82
24.966 1.729 2.005 207 142 124
56.592 16.299 -2.291 159 128 98
11.351 18.704 0.304 218 183 96
41.620 20.318 -3.336 160 142 115
63.166 38.643 1.543 108 131 155
22.329 46.763 2.557 169 93 95
78.950 2.161 3.816 114 103 118
42.064 20.344 -2.402 181 141 175
92.298 39.476 1.764 180 140 120
13.596 41.477 2.902 158 102 86
68.786 45.689 3.424 99 175 92
39.756 18.320 -2.994 167 131 128
28.584 21.374 -0.255 157 109 69
27.830 13.498 0.013 139 113 106
79.344 10.386 2.744 165 149 108
83.540 49.850 1.881 168 87 94
59.538 28.650 -0.702 150 59 115
62.677 46.213 1.435 111 144 99
64.295 26.640 0.025 168 136 76
42.377 25.870 -2.824 155 65 83
57.986 0.272 0.692 178 127 118
31.700 45.101 0.704 138 128 99
73.254 28.049 0.717 163 127 43
88.498 11.387 1.240 152 116 79
76.112 49.721 2.470 162 166 71
66.042 39.980 2.028 156 142 119
71.876 11.103 1.300 174 101 113
58.932 9.811 -0.915 170 127 89
76.527 20.905 0.131 139 131 48
66.727 30.410 0.986 163 100 103
20.535 36.120 2.967 130 150 120
76.583 27.392 1.225 181 89 140
26.665 26.570 -0.562 141 111 103
80.326 33.478 2.800 146 119 128
17.192 22.990 0.316 99 195 90
0.489 24.418 -1.762 161 134 111
41.520 38.569 -0.177 161 165 82
41.252 1.441 0.134 107 131 114
99.925 12.178 -1.530 155 129 126
55.173 35.022 -1.963 172 172 101
14.871 9.918 2.067 145 155 148
27.321 14.130 -0.281 146 130 52
91.551 34.558 1.684 137 96 53
17.509 44.565 3.993 128 121 96
5.942 43.741 2.450 213 138 122
98.454 8.357 -0.319 180 128 88
23.123 36.983 2.252 200 117 116
27.937 10.884 0.932 68 99 140
11.310 40.102 3.434 178 128 78
69.369 26.564 0.927 188 133 99
83.060 27.059 0.829 147 110 44
26.486 31.248 0.966 216 145 104
35.609 25.656 -2.233 177 137 143
97.026 3.270 0.058 145 114 74
65.572 32.093 0.756 148 179 82
16.883 31.576 2.719 199 140 94
9.249 36.175 2.428 150 143 125
87.817 22.884 -0.452 158 116 98
20.574 36.851 2.554 200 82 84
43.121 1.095 0.108 163 123 50
38.968 26.625 -2.962 147 73 95
98.905 23.039 -2.068 203 138 96
75.046 19.287 0.942 150 108 80
59.696 39.268 0.727 110 153 131
8.631 19.983 0.675 180 128 120
62.135 29.622 -1.068 141 159 132
55.613 26.388 -2.934 176 161 85
38.319 28.670 -2.497 148 123 149
54.320 35.948 -0.180 153 158 99
35.007 13.269 -0.527 162 122 121
60.822 15.016 -1.238 121 140 138
35.378 13.302 -1.854 146 124 94
80.369 40.589 3.854 153 125 95
60.688 20.149 -1.997 151 99 132
28.809 47.742 2.788 169 112 102
28.920 36.262 2.084 171 123 139
47.724 48.362 -2.137 73 141 102
47.550 47.686 -1.461 110 112 91
90.421 19.559 -0.531 150 92 102
33.713 15.027 -1.286 162 114 43
12.980 35.286 2.866 145 136 68
5.708 39.754 3.063 150 160 56
33.067 8.778 0.035 183 138 111
37.564 31.427 -0.605 113 142 73
77.275 28.913 0.569 127 128 151
42.351 46.840 -0.244 168 143 77
68.358 7.073 2.460 134 143 90
4.940 28.665 0.328 129 154 112
43.557 12.952 -1.952 161 129 79
62.138 30.669 -0.273 151 93 98
71.617 24.543 0.500 177 108 80
5.013 43.520 1.693 168 98 79
78.535 25.044 1.292 160 167 130
63.479 32.181 0.513 115 123 112
29.605 42.520 1.879 180 117 64
6.593 16.371 0.594 129 97 99
26.567 22.677 -0.191 179 152 82
82.687 40.327 3.185 168 117 114
84.537 49.572 2.284 137 126 127
59.340 31.569 0.323 129 161 90
91.575 4.910 1.293 141 141 66
92.887 36.445 0.963 115 125 94
46.617 36.449 -0.268 133 134 100
68.396 42.439 2.392 127 133 88
91.781 25.944 -0.042 145 99 111
21.144 27.123 0.613 156 143 93
90.970 6.626 1.097 138 100 99
33.427 34.721 -0.663 169 126 84
65.182 31.343 1.097 107 96 79
41.197 22.204 -3.030 196 153 126
17.701 13.012 1.743 137 134 115
55.946 7.082 -1.364 144 104 70
2.383 40.442 1.828 134 145 89
83.259 9.999 1.544 157 146 112
52.132 39.132 -0.278 153 150 123
35.970 40.187 0.594 180 159 83
0.645 48.658 0.429 142 88 105
28.672 12.340 0.133 143 131 93
82.447 33.695 2.762 165 98 106
79.348 21.842 1.416 125 156 114
10.257 15.707 0.883 128 137 94
98.924 49.768 -0.001 147 126 106
30.572 48.889 0.622 133 126 124
26.123 12.035 1.161 127 76 122
27.043 12.386 0.325 140 137 94
35.812 32.483 0.734 143 104 101
67.829 26.533 0.383 192 122 84
11.444 27.175 0.969 139 124 83
36.520 44.308 0.707 123 113 90
72.525 20.393 0.386 178 136 78
68.350 0.822 2.178 109 122 98
73.730 46.526 1.896 141 188 86
66.691 9.151 1.359 196 134 84
92.188 33.767 1.616 145 138 108
96.230 28.055 -0.714 180 136 122
36.529 14.521 -1.674 186 115 90
52.902 10.410 -1.533 151 109 128
86.660 14.753 0.551 164 120 97
99.298 48.828 0.226 136 156 59
12.198 39.830 3.708 141 138 70
31.448 43.890 1.720 163 137 179
16.239 32.726 2.940 189 120 137
48.090 7.182 -2.035 133 134 111
2.655 18.566 -1.323 152 130 118
83.165 7.181 3.033 167 132 130
18.158 27.635 0.090 217 110 108
64.346 49.215 1.034 195 90 117
87.302 19.169 -0.117 168 149 114
55.542 6.331 -0.384 143 125 100
94.811 27.337 -1.010 144 125 141
95.425 48.196 1.196 151 115 75
30.092 0.471 2.115 127 92 108
91.267 15.849 -1.540 177 127 108
85.899 9.167 2.346 158 72 104
74.404 37.199 2.659 157 125 82
75.129 3.739 1.235 185 115 148
90.824 1.791 2.839 103 137 88
17.888 7.340 2.310 133 130 80
14.799 23.526 0.070 170 137 123
67.153 24.906 -1.132 101 116 106
95.433 18.340 -1.655 148 134 81
34.554 14.570 -1.338 207 148 107
70.577 10.521 0.979 145 127 123
67.117 38.011 2.302 163 156 149
5.425 12.514 -0.353 120 142 140
37.020 24.107 -3.287 159 99 131
66.199 41.785 2.611 138 136 81
43.263 14.002 -2.578 203 87 63
16.418 4.651 2.557 113 116 85
92.330 46.680 1.411 142 120 47
48.235 20.288 -4.168 161 143 136
71.797 41.647 2.564 170 143 82
43.776 30.288 -2.447 146 110 123
53.502 9.490 -1.825 181 111 109
5.780 38.189 2.101 150 124 109
10.966 23.049 -0.038 166 150 120
57.654 17.169 -2.520 142 135 111
79.916 15.743 0.701 164 163 118
86.699 35.429 2.206 147 119 102
35.298 23.718 -1.428 133 154 80
41.050 43.862 -0.584 159 139 108
23.689 37.243 2.837 164 80 67
96.837 17.741 -1.781 162 89 100
30.315 47.978 2.103 147 93 101
57.595 37.675 0.117 114 151 122
86.771 33.912 2.813 157 159 88
54.904 36.524 -1.917 164 172 125
58.510 17.339 -2.432 96 125 105
55.883 23.283 -1.880 157 141 90
63.553 2.747 0.692 169 120 122
6.795 30.150 -0.441 178 104 98
61.712 32.711 0.393 182 106 90
40.956 4.788 -1.012 130 183 103
20.548 27.140 0.782 134 116 134
75.962 19.339 0.467 178 76 106
4.314 4.192 0.938 145 144 94
3.259 13.724 0.234 169 133 63
35.857 45.629 1.034 185 127 65
99.489 26.002 -2.159 111 116 119
0.425 39.184 1.736 141 99 130
80.375 4.913 3.010 147 150 57
85.048 32.692 2.441 152 104 109
74.354 20.206 0.794 120 142 122
16.967 30.721 1.448 129 93 68
99.758 19.443 -1.904 134 122 83
65.666 1.102 2.128 166 125 67
25.565 31.097 2.106 193 161 88
25.880 40.984 2.646 144 139 86
4.368 6.929 0.829 129 131 115
59.621 12.483 -0.938 160 134 102
6.170 28.048 0.761 81 107 87
64.065 10.084 -0.033 149 130 124
97.292 6.979 -0.134 139 137 118
71.806 17.548 1.012 151 149 119
58.561 22.634 -2.233 116 103 114
73.263 23.326 0.646 137 91 88
73.116 28.047 1.655 157 164 69
96.443 38.113 -0.075 154 81 101
41.962 40.707 -0.772 149 168 130
76.212 28.400 1.298 174 91 81
61.278 19.332 -1.520 223 122 52
29.534 19.964 -0.785 148 92 114
19.464 27.549 0.675 145 116 120
55.502 22.534 -3.834 161 149 81
18.593 21.703 1.376 145 138 59
6.319 30.583 1.465 137 169 131
97.106 39.261 1.729 176 113 115
71.312 4.660 1.915 176 140 105
56.708 27.211 -1.543 165 135 95
84.593 46.427 3.674 176 120 107
9.230 28.770 0.555 157 112 146
54.893 15.462 -2.022 143 168 126
70.917 18.252 0.046 121 126 84
49.502 38.626 -1.135 135 156 102
53.317 27.581 -3.024 133 127 93
30.607 12.885 -0.499 148 88 118
15.148 33.314 2.585 133 45 140
74.233 32.661 2.274 134 152 94
12.042 15.805 0.845 148 137 54
63.337 42.349 1.440 173 118 134
69.504 30.453 1.007 179 138 72
18.220 3.366 2.971 170 164 79
21.790 35.051 1.267 140 98 96
95.832 39.654 1.540 133 165 85
40.271 17.640 -2.903 199 94 92
73.381 49.498 3.022 210 127 69
44.364 1.367 -1.112 117 87 128
76.671 37.316 3.414 143 115 116
6.752 42.753 2.387 157 123 101
23.862 4.412 2.338 194 144 67
68.279 45.551 2.584 172 138 74
45.215 31.394 -2.154 145 144 118
75.110 21.433 0.377 144 143 83
28.224 35.432 0.797 129 110 76
55.371 47.620 -0.621 122 166 89
67.896 15.033 -0.150 101 149 90
34.232 28.860 -1.134 189 137 135
43.508 35.904 -1.899 123 150 79
28.842 19.278 -1.377 180 80 33
90.686 47.712 1.497 131 110 104
31.235 15.737 -0.871 191 100 87
45.928 29.195 -2.892 185 120 90
50.653 3.395 0.457 139 136 122
66.122 47.237 1.908 156 154 90
42.524 30.007 -2.804 204 112 133
6.782 34.106 2.049 170 147 132
30.093 4.391 1.950 173 160 126
1.913 41.621 2.317 186 92 107
70.469 41.937 2.985 154 152 90
5.654 18.374 -0.711 109 148 77
34.446 25.226 -1.719 161 106 59
30.805 4.496 1.731 168 165 141
40.823 17.937 -3.139 154 124 95
72.208 43.599 3.799 161 168 107
55.561 8.704 -0.834 123 149 94
97.397 14.078 -1.661 134 121 117
21.465 42.038 3.419 138 142 109
23.207 12.128 0.956 225 149 83
66.479 6.484 2.732 119 151 108
11.252 28.330 0.962 163 101 106
86.731 33.346 1.530 168 166 96
21.498 4.011 2.931 152 106 53
7.003 12.313 0.380 184 149 118
77.198 11.951 1.555 134 137 101
91.939 17.103 -0.789 82 119 88
14.020 3.255 3.674 194 81 62
56.628 14.032 -2.409 156 122 101
38.963 2.218 -0.189 158 171 82
84.114 23.283 1.017 187 118 102
86.246 9.718 1.278 126 143 94
79.397 31.027 1.613 150 155 117
35.416 20.938 -1.908 155 147 86
39.485 13.025 -2.025 136 124 116
61.385 37.612 0.377 159 96 45
27.531 14.982 -0.341 152 110 82
63.352 8.909 -0.023 167 77 132
79.356 25.129 0.442 117 135 106
90.145 42.065 2.901 196 97 88
12.139 1.625 4.006 188 173 94
27.161 31.938 0.066 133 103 100
83.019 17.861 -0.026 153 108 103
91.194 16.996 0.430 135 119 92
93.146 22.469 -0.339 150 139 99
74.754 32.637 1.667 140 94 82
4.597 44.170 2.315 206 137 60
50.232 29.365 -2.659 184 124 106
83.517 14.632 1.043 133 136 81
28.322 8.848 1.169 113 148 105
53.491 32.237 -0.889 175 111 144
18.216 17.262 1.110 109 108 85
45.417 6.952 -0.236 167 158 88
57.484 1.804 0.149 142 101 124
52.063 12.310 -2.010 156 104 80
83.519 3.515 3.031 155 105 103
77.955 24.772 0.797 146 119 171
7.944 27.752 1.143 168 111 129
26.400 46.308 2.250 116 119 53
8.284 28.189 1.027 182 70 105
33.325 0.298 1.936 163 147 83
77.823 28.890 1.697 100 121 94
7.278 46.540 2.557 182 131 115
66.561 44.820 2.452 124 143 69
30.272 32.365 1.117 167 128 81
27.611 47.522 1.449 176 181 110
24.314 8.980 1.956 135 106 86
80.033 46.738 2.083 148 147 93
51.951 48.128 -1.476 95 107 113
37.188 26.553 -2.754 157 108 119
11.064 35.778 2.273 139 91 99
69.169 7.245 2.255 157 138 119
22.784 12.020 0.975 147 109 85
92.477 40.784 1.899 154 118 89
17.828 19.282 0.285 141 184 129
45.374 26.274 -2.766 137 96 138
22.542 12.069 0.891 179 131 76
48.294 35.410 -0.865 124 158 126
32.535 18.172 -1.669 171 115 88
76.491 32.275 2.967 165 219 147
60.646 36.191 0.653 151 119 116
57.286 29.651 -1.937 103 153 64
93.713 42.546 2.437 135 112 110
7.394 19.402 0.219 161 104 101
39.706 37.532 -0.306 134 179 101
41.735 7.101 -2.046 151 113 141
35.405 45.495 0.241 183 141 117
32.774 19.248 -1.171 156 105 146
90.251 6.989 1.799 170 142 88
30.907 13.806 -0.904 167 125 125
76.741 9.171 2.645 93 105 135
56.349 32.157 -0.820 172 124 136
32.343 27.156 0.552 204 101 149
19.605 12.202 1.066 191 122 68
43.326 30.645 -1.402 162 140 101
67.810 47.652 1.298 116 137 63
98.009 25.915 -1.842 106 173 127
63.112 22.505 -2.469 164 142 109
69.340 30.715 1.835 107 188 118
52.809 16.180 -3.586 170 165 93
19.601 34.545 2.287 160 147 104
66.190 24.122 -0.284 125 120 148
41.531 22.116 -3.375 130 148 104
65.788 0.593 1.066 159 147 112
38.053 34.238 -0.667 168 150 143
83.699 42.544 3.733 146 70 100
92.378 3.772 2.215 185 148 127
55.963 47.473 0.382 201 101 67
7.188 32.536 0.673 154 130 95
90.161 34.337 1.587 153 115 119
21.226 40.832 3.899 159 90 97
31.317 20.712 -1.049 110 161 108
31.914 47.390 1.035 152 101 76
60.482 39.261 2.040 164 106 131
33.543 18.685 -0.512 158 96 81
59.064 45.056 0.661 141 117 109
78.989 17.796 0.968 170 80 81
59.841 48.057 1.103 147 142 110
18.848 23.420 0.083 148 120 105
53.557 27.238 -2.160 134 133 57
88.798 28.567 0.005 121 152 99
72.216 12.049 1.637 97 134 96
45.325 3.297 -0.786 128 102 104
13.804 47.089 2.728 165 130 95
18.434 39.637 3.803 164 135 117
79.605 47.321 2.118 136 155 69
79.325 19.900 -0.124 149 125 125
11.344 40.561 4.084 193 119 77
87.889 6.094 1.771 139 134 95
15.395 28.731 1.934 163 125 74
8.490 9.437 1.627 159 130 75
99.846 41.143 -0.023 146 111 110
16.516 10.774 1.929 144 123 147
5.762 30.482 0.539 169 113 142
85.366 45.463 2.788 193 177 124
76.192 28.019 0.463 148 191 74
7.932 11.597 0.985 148 120 166
52.365 46.170 0.460 181 106 115
41.883 25.003 -2.721 170 141 118
90.008 34.649 1.244 117 136 115
2.640 25.007 -0.635 153 220 72
64.178 33.771 0.529 136 127 132
95.737 15.081 -1.526 178 115 112
36.555 29.553 -2.343 155 191 59
58.649 32.876 -0.757 159 99 109
43.197 13.354 -2.858 158 143 90
33.746 35.773 0.952 150 129 78
89.450 15.351 0.762 126 163 95
14.105 39.012 3.707 120 150 97
16.936 15.074 1.125 138 141 108
59.291 24.343 -1.972 161 134 109
53.511 15.031 -3.241 196 155 95
85.890 33.462 2.894 131 105 79
31.833 22.110 -0.884 186 165 102
16.008 29.876 2.093 145 109 138
11.765 5.517 2.421 153 90 166
88.099 26.863 0.670 133 110 85
48.739 47.141 -0.677 188 105 111
68.568 26.884 0.499 120 142 127
22.612 3.766 3.221 180 109 94
34.141 23.113 -1.577 113 140 166
26.963 25.731 0.124 186 161 114
21.023 33.037 2.342 134 145 133
53.842 13.881 -2.948 158 87 65
43.124 23.734 -3.048 151 78 113
15.999 15.614 0.667 165 116 133
89.244 45.610 1.608 153 132 109
79.944 39.920 3.410 151 81 45
68.428 0.998 2.301 151 160 82
31.740 32.223 0.141 152 137 99
4.820 28.933 0.724 178 151 117
86.821 43.075 3.037 127 108 64
44.099 17.954 -2.747 112 144 95
39.590 8.013 -0.522 156 204 110
43.167 46.172 -0.431 163 138 68
73.254 10.404 2.065 144 105 83
79.510 39.255 3.905 153 133 69
77.154 18.899 -0.136 159 98 108
5.169 34.861 2.190 175 137 77
26.384 1.288 1.797 163 144 107
32.399 45.805 1.446 213 94 95
50.241 24.377 -4.195 143 117 152
81.890 30.905 1.174 130 183 101
67.621 6.378 1.851 182 88 88
69.765 42.436 3.951 142 94 84
82.658 49.959 2.298 175 118 110
64.506 29.050 -0.242 118 119 81
28.660 4.314 1.080 146 180 121
87.721 47.509 3.042 123 174 114
31.946 47.660 0.306 127 114 98
3.795 12.045 -0.175 181 121 103
60.388 16.088 -1.489 132 115 106
17.390 29.146 1.141 88 216 108
70.656 16.294 -0.026 187 112 136
37.062 29.390 -1.994 155 157 99
46.941 7.351 -1.451 118 91 149
3.160 29.848 0.504 149 129 146
97.314 17.940 -1.833 167 144 111
48.601 25.823 -2.309 202 106 47
22.096 24.646 0.931 141 95 99
62.363 42.815 1.311 167 172 94
18.129 12.427 2.515 154 170 78
3.392 11.811 0.863 162 157 111
3.649 47.908 2.950 178 132 67
10.111 37.119 1.870 215 123 89
15.727 30.242 0.906 181 99 104
78.903 10.672 1.918 217 104 112
55.966 34.847 -0.182 128 123 126
2.136 34.696 0.729 162 153 102
78.140 24.551 0.170 117 71 114
35.623 39.625 0.868 133 151 93
87.303 15.134 0.868 104 111 157
41.926 8.536 -2.474 171 138 88
59.647 33.247 -0.159 149 148 37
43.735 36.242 -0.509 118 122 67
26.382 8.738 0.761 184 146 92
53.918 35.420 -0.993 127 131 161
60.163 3.423 1.395 155 84 112
63.671 9.963 0.325 170 155 97
77.103 4.408 2.853 186 145 96
41.630 29.995 -1.619 131 143 110
56.117 47.670 -0.742 124 132 106
37.658 17.291 -2.601 164 158 85
85.346 16.476 0.200 147 121 89
85.953 22.791 -0.630 119 134 65
67.505 18.517 -0.448 151 140 138
52.512 0.820 -0.533 149 147 137
55.622 42.664 0.836 159 111 122
29.257 3.854 1.845 141 127 68
30.420 16.069 -0.586 118 128 73
16.679 45.414 3.740 161 109 139
84.541 21.454 0.199 213 110 92
84.396 17.613 -0.089 175 117 99
76.935 29.615 1.797 141 139 115
37.458 20.385 -3.627 188 103 101
61.716 1.624 1.831 149 89 66
65.338 15.002 -0.887 136 118 85
64.942 6.981 1.074 159 143 126
64.935 39.215 1.771 130 171 103
26.149 19.795 -0.095 148 111 87
28.769 2.816 2.470 146 125 85
3.852 1.492 1.081 121 71 130
0.621 21.338 -1.178 182 100 53
59.532 32.350 -1.181 154 115 65
37.411 45.567 -0.333 127 133 141
70.646 36.578 2.590 166 107 72
67.761 1.992 2.211 175 102 77
48.356 43.860 -0.700 108 103 101
75.231 14.927 0.532 146 110 91
46.411 15.314 -3.343 148 126 105
64.291 38.792 1.741 136 90 113
21.475 44.588 3.454 173 166 96
79.824 29.997 0.766 144 137 85
17.285 32.855 1.887 147 113 155
76.046 18.863 -0.085 145 136 128
62.984 43.507 1.688 139 93 111
43.194 7.194 -1.157 130 164 70
14.153 30.027 1.886 148 110 127
32.901 5.848 -0.371 139 117 106
32.742 35.624 0.585 149 142 74
90.886 10.893 -0.158 126 153 82
73.033 36.295 2.699 126 122 77
21.935 44.309 3.051 152 114 94
33.647 39.028 1.774 123 110 54
46.291 9.556 -2.271 139 116 68
24.224 44.510 2.930 121 91 158
53.179 19.792 -3.016 140 143 138
75.465 33.882 2.540 134 141 70
10.227 30.467 2.305 160 149 59
25.977 21.487 -1.055 167 113 90
59.291 37.071 0.246 162 114 85
0.331 40.549 1.921 120 143 130
0.183 48.522 1.417 174 144 103
28.018 9.186 0.363 185 102 94
67.429 1.694 3.081 133 144 78
30.311 3.494 2.006 147 113 76
47.227 30.921 -1.778 155 191 95
43.291 3.855 -0.204 185 129 99
29.645 27.649 -0.363 142 160 54
80.475 42.206 3.161 129 159 101
35.656 33.216 -1.329 147 93 93
94.208 3.440 1.067 170 184 74
10.112 35.608 3.513 161 120 133
73.154 9.837 1.312 207 111 85
91.394 13.162 0.254 134 120 120
70.540 48.304 2.503 130 115 108
26.883 23.607 -0.326 111 131 97
81.035 36.809 2.505 183 100 96
21.771 46.737 3.423 124 160 76
96.091 45.985 0.207 138 92 58
42.755 34.722 -1.578 131 127 118
75.448 7.143 1.826 183 130 109
31.530 43.328 2.234 136 170 67
7.692 45.439 2.246 114 146 122
97.643 33.822 0.984 125 130 56
11.149 4.189 2.520 187 150 86
32.056 23.031 -1.044 191 124 105
99.848 15.441 -2.443 128 111 72
30.585 26.940 -0.210 188 113 158
29.993 25.918 -0.601 174 115 149
43.733 23.419 -4.304 144 144 134
70.297 11.783 -0.014 182 116 129
41.532 39.427 -0.965 163 117 102
8.431 0.518 2.772 120 83 122
14.331 9.603 1.799 165 121 109
41.642 25.873 -2.900 147 143 137
17.209 12.648 1.318 181 153 114
24.587 39.520 2.695 154 166 77
86.820 14.334 1.357 154 137 145
79.792 13.819 1.399 110 56 115
32.193 2.001 1.602 164 156 129
4.817 17.730 -0.209 114 154 98
73.968 37.383 2.284 188 160 50
60.606 4.660 0.738 146 128 81
33.821 21.948 -1.906 149 142 67
78.505 4.040 3.401 136 129 75
9.317 15.425 1.081 195 133 94
97.255 38.961 0.582 161 87 41
15.872 45.880 3.169 157 97 115
97.004 13.278 -1.284 157 191 145
50.295 21.787 -3.936 157 157 112
8.406 9.467 0.932 173 75 99
96.021 20.348 -2.316 138 106 111
43.080 36.257 0.374 159 91 116
80.617 25.998 1.178 178 153 101
91.202 49.899 1.368 200 138 84
98.760 24.095 -1.775 136 119 107
55.195 6.747 -0.973 141 116 96
58.985 42.684 0.332 118 152 97
23.924 34.850 2.368 163 165 123
41.240 38.532 0.363 112 130 109
46.497 30.808 -2.345 112 138 82
74.230 11.892 1.750 121 155 94
19.941 13.275 0.841 116 133 75
70.117 26.754 1.242 121 86 130
50.645 45.732 -0.657 128 115 89
94.496 40.870 0.774 122 113 105
8.872 32.115 1.624 176 78 134
15.184 36.769 2.811 203 116 95
10.651 19.751 -0.373 137 141 113
85.343 7.115 1.450 168 63 108
81.066 0.728 4.019 144 135 99
34.821 26.806 -2.273 140 138 110
47.396 4.574 -0.620 125 110 97
35.250 26.960 -1.423 192 150 94
21.484 42.548 2.952 130 120 133
70.964 38.364 1.962 186 118 138
81.475 18.065 0.414 180 146 71
34.244 39.783 1.683 106 129 126
50.558 48.324 -1.188 111 131 93
24.297 37.737 2.595 119 108 85
79.561 0.868 3.740 136 155 120
11.949 4.871 2.923 148 132 135
28.721 34.766 0.825 194 128 122
17.840 2.592 2.660 187 160 101
90.197 26.683 -0.686 211 108 100
64.697 10.720 -0.625 145 112 89
66.577 29.454 0.703 155 101 90
45.979 33.672 -1.234 136 120 81
64.047 36.708 1.466 122 156 80
79.072 29.803 2.236 150 160 100
13.367 46.901 3.654 176 181 119
7.511 10.556 2.562 139 121 95
44.950 19.877 -3.153 212 115 149
98.687 5.421 0.782 177 136 103
25.816 23.581 -0.511 119 137 118
91.209 11.909 0.763 152 106 113
88.642 32.140 1.157 156 128 86
7.702 19.997 -0.056 138 83 119
15.449 33.057 1.381 153 135 109
0.472 36.563 1.670 135 138 180
27.601 43.898 1.662 146 99 68
86.743 27.410 1.247 190 136 113
4.640 40.345 2.560 162 86 86
57.197 18.401 -3.209 164 132 111
58.124 23.423 -1.252 146 129 110
97.025 24.805 -1.314 180 152 55
2.802 19.565 -0.936 193 163 86
19.288 46.033 3.236 169 147 93
77.576 19.311 0.808 129 127 98
29.562 1.709 1.610 173 142 89
77.459 14.256 1.653 142 160 95
63.795 23.466 -2.045 142 127 105
11.728 34.308 2.908 151 138 123
20.768 49.102 2.021 138 105 89
75.321 45.090 3.022 99 135 67
61.195 9.090 -0.475 163 118 78
15.179 22.458 0.755 174 105 27
3.188 49.549 0.662 172 131 94
35.794 19.982 -2.002 166 143 88
82.614 9.279 3.099 190 92 73
53.905 18.754 -1.883 196 148 104
11.358 28.054 1.717 135 122 135
76.113 47.003 3.400 149 147 75
7.394 29.212 0.949 148 147 81
82.867 28.204 1.552 155 94 98
23.283 49.099 2.087 172 125 83
35.589 19.292 -2.036 102 125 123
3.244 24.696 -0.289 120 123 139
99.954 0.203 -0.133 162 101 126
51.495 24.404 -2.552 164 129 105
40.249 27.350 -2.329 141 128 127
90.527 29.111 0.795 183 114 77
79.832 9.207 1.799 127 124 92
51.173 29.738 -1.492 151 135 52
97.570 36.467 0.477 137 115 84
41.984 44.377 0.099 175 125 94
53.610 12.676 -2.431 125 97 155
65.352 6.195 1.714 184 110 136
32.930 41.017 1.567 160 101 94
29.991 20.235 -0.803 121 118 128
5.645 14.329 -0.242 100 151 133
22.187 7.238 2.228 182 142 97
62.386 16.811 -2.100 132 153 94
56.876 37.683 0.019 162 90 115
80.346 47.680 3.653 159 161 113
55.755 11.420 -1.274 141 169 28
27.010 37.805 2.105 131 123 114
38.855 3.237 -0.042 146 79 117
38.336 49.192 -0.660 151 97 116
76.416 24.490 0.799 145 120 135
89.283 13.238 0.103 146 130 91
3.311 26.785 -0.686 149 164 135
24.923 40.246 2.737 116 138 76
30.629 9.750 0.119 167 105 128
21.203 4.198 3.595 165 95 111
9.816 16.596 -0.467 171 126 132
97.818 47.943 0.298 134 82 135
17.924 45.850 3.117 183 147 56
45.196 3.285 0.071 152 103 97
7.000 0.130 2.326 115 50 125
46.187 26.116 -2.750 157 157 83
68.752 6.983 1.486 165 167 119
83.314 13.426 1.330 162 126 104
85.309 47.172 2.203 118 130 141
22.668 32.792 1.675 150 123 56
54.401 39.302 0.280 211 124 143
95.171 19.278 -1.911 137 128 79
48.177 37.111 -0.279 156 106 61
61.988 33.190 0.099 184 123 125
80.266 27.378 1.659 199 86 81
83.232 45.480 3.248 94 92 67
56.930 18.796 -3.027 106 140 101
77.457 29.357 1.413 129 49 126
18.029 20.597 0.472 159 123 78
38.875 6.444 0.140 187 124 89
51.273 5.714 -0.647 128 115 92
81.698 21.122 0.404 131 133 134
81.957 42.402 3.570 119 94 90
12.045 4.788 3.104 151 87 67
54.688 49.405 0.024 163 145 145
29.825 47.030 0.613 174 84 95
32.688 20.319 -2.336 172 135 133
23.897 9.878 1.757 150 74 82
62.931 37.656 1.358 221 117 135
27.263 14.295 -0.778 200 76 89
43.019 15.877 -3.022 163 138 136
11.507 23.519 0.301 165 106 82
88.972 30.618 1.031 162 147 87
48.169 26.538 -2.621 143 122 110
61.830 6.919 1.252 176 154 114
36.734 36.405 0.523 195 74 113
0.753 35.559 0.388 126 112 83
90.662 44.247 2.345 167 130 114
9.137 9.075 1.588 165 143 92
67.520 29.094 0.651 162 85 97
90.145 48.035 1.313 62 111 102
89.865 32.836 0.915 147 110 134
26.073 42.816 2.202 182 105 95
53.936 1.970 0.449 122 122 95
20.516 27.609 0.548 157 154 128
1.861 24.506 -0.691 167 152 56
67.690 9.722 0.542 161 174 92
34.833 5.279 0.514 188 106 97
89.557 5.707 1.804 145 119 84
28.089 6.106 1.274 183 138 151
28.604 6.814 1.320 130 156 127
30.047 37.312 1.129 118 132 122
38.164 46.710 0.452 177 126 76
73.424 19.435 0.168 83 85 43
8.652 31.000 1.335 187 152 84
51.096 40.374 -0.274 122 134 90
64.146 22.026 -1.165 169 172 131
13.738 47.443 3.004 145 84 67
3.185 10.463 0.765 147 130 99
91.068 38.014 2.419 168 159 94
7.618 26.266 -0.685 140 70 104
85.265 1.557 2.083 137 123 102
88.004 18.314 -0.686 144 79 112
52.732 8.713 -2.022 123 112 137
57.533 22.270 -1.873 206 116 71
58.095 49.477 -0.637 178 138 96
5.425 0.497 2.247 160 118 98
39.743 49.356 -0.669 167 156 97
97.110 19.677 -1.735 155 105 115
56.269 7.331 0.073 161 117 109
68.331 31.699 0.861 162 145 103
87.227 28.965 1.076 150 160 116
3.798 33.841 1.033 172 119 108
89.763 37.280 1.836 122 107 81
73.740 6.710 2.535 141 128 122
28.265 7.311 1.262 163 62 128
17.281 17.767 -0.189 155 139 113
97.104 12.069 -1.059 178 145 143
23.919 37.482 3.696 132 190 79
25.273 13.823 0.318 145 145 79
59.501 12.807 -1.950 136 119 77
69.496 25.623 0.200 137 90 87
89.661 39.383 1.935 181 108 99
37.938 32.415 -1.265 200 131 101
96.020 44.189 1.509 214 145 116
92.286 30.426 -0.353 147 146 84
40.624 12.227 -2.273 160 80 93
73.158 11.120 1.026 164 130 110
52.085 16.901 -2.395 104 137 100
2.064 41.267 2.204 175 100 124
18.475 46.815 2.786 129 118 75
80.444 14.472 0.171 175 115 150
43.192 46.138 -0.311 131 141 88
35.340 11.068 -0.506 146 139 65
2.176 33.083 0.279 156 120 124
91.422 2.199 1.287 113 125 75
78.266 19.753 0.138 107 71 67
72.904 35.833 2.460 176 115 81
85.404 17.425 0.841 197 144 103
56.642 4.147 -0.262 147 129 85
40.464 37.566 -0.054 174 125 73
12.574 11.208 1.369 153 110 99
62.254 28.743 -1.385 156 136 59
21.557 49.037 1.751 155 183 90
97.517 22.996 -1.621 175 178 104
38.875 2.799 0.106 178 111 74
73.194 23.359 0.479 154 188 101
91.795 2.635 2.138 160 146 128
10.990 18.820 0.551 154 113 102
50.459 12.026 -2.620 160 124 91
51.420 26.227 -2.396 124 84 44
10.162 3.161 3.750 130 94 65
32.475 14.907 -1.616 128 136 86
91.199 46.369 1.780 115 101 111
10.209 43.405 3.055 194 150 121
33.740 14.186 -1.348 146 153 109
47.256 44.463 -0.593 175 132 85
57.615 41.303 0.056 141 114 60
78.035 45.357 3.448 153 132 93
92.659 31.692 -0.202 198 119 121
19.324 15.894 -0.413 189 80 81
83.586 13.228 0.998 169 158 93
80.753 9.432 2.097 158 169 91
72.776 41.643 2.422 156 132 133
27.930 28.201 -0.603 109 146 135
5.434 10.166 1.843 131 131 149
92.234 44.483 1.783 183 149 114
69.939 31.654 0.552 144 101 114
96.730 31.747 0.022 133 109 83
85.200 46.972 3.224 137 138 52
81.372 11.557 1.893 132 134 89
49.076 30.759 -1.752 134 123 128
68.776 24.268 -0.052 152 169 84
15.844 27.192 1.324 152 157 67
12.809 45.486 4.693 135 199 118
49.633 45.745 -1.173 136 138 137
54.722 21.767 -3.361 137 107 100
65.827 20.048 -0.858 126 134 133
87.322 17.811 0.011 156 171 56
27.290 28.975 0.876 142 176 77
69.222 13.168 0.723 116 100 138
46.432 33.233 -1.291 176 140 78
40.445 34.116 -1.438 132 137 121
70.819 31.265 1.887 198 123 106
48.021 10.797 -1.611 114 144 138
67.518 35.927 1.564 149 121 101
29.644 5.028 2.162 148 131 123
40.404 36.361 -0.753 163 118 93
2.876 26.318 0.236 160 137 131
38.583 42.455 0.121 175 111 66
44.429 5.184 -0.181 104 111 140
20.345 41.827 3.262 139 144 129
33.703 36.289 0.567 171 165 112
26.761 46.471 2.202 169 123 121
96.014 1.286 0.855 113 168 145
61.408 18.738 -2.923 144 120 48
89.925 19.786 -1.268 167 142 56
25.838 4.577 1.654 178 109 91
74.178 20.849 0.383 149 145 150
55.421 16.972 -2.462 165 127 130
58.671 10.487 -1.298 173 170 91
56.409 34.970 -0.390 163 111 88
50.074 10.780 -1.325 144 88 95
63.238 14.871 -1.365 151 170 110
13.752 47.862 2.779 161 167 60
63.843 34.114 0.787 134 83 88
90.097 14.281 -0.254 137 167 128
89.423 14.884 0.470 122 141 110
78.316 34.558 2.132 134 106 135
87.779 6.843 1.978 129 121 100
1.098 5.125 1.124 120 169 130
33.511 0.590 0.646 120 123 108
63.118 42.260 1.610 89 120 126
26.934 20.622 -0.711 150 121 95
40.377 47.512 -1.574 145 107 88
21.866 49.806 2.373 151 105 26
88.375 39.629 2.875 183 100 79
73.394 17.288 -0.298 144 77 110
20.146 6.967 2.514 135 80 125
73.058 33.492 2.630 124 143 105
67.964 47.451 2.473 154 148 103
31.513 37.664 1.679 150 113 99
84.169 43.420 2.691 186 148 105
5.515 3.288 1.880 181 112 76
81.897 38.729 2.810 161 128 127
84.827 42.315 3.443 154 115 101
80.863 29.598 1.987 180 117 98
20.339 38.842 3.330 162 158 124
86.072 25.064 0.289 132 127 97
2.947 26.044 0.535 143 147 110
87.700 5.988 1.786 164 125 82
68.430 13.781 -0.552 111 158 127
55.016 3.088 -0.076 145 114 137
78.298 5.288 3.092 134 113 58
56.744 9.477 -0.797 181 75 57
76.957 17.997 0.839 139 127 138
82.056 25.380 0.459 170 104 115
89.622 16.685 -0.304 192 122 105
74.227 15.987 0.836 166 119 89
73.940 42.618 3.267 134 114 69
15.294 7.404 3.142 191 142 115
98.648 49.339 -0.557 157 124 119
18.992 8.837 2.510 128 129 99
4.016 7.089 2.062 138 127 89
28.515 19.589 -0.563 129 134 176
1.575 4.818 2.199 113 106 99
94.621 49.045 0.832 190 93 77
83.917 30.039 1.263 165 119 76
45.608 13.431 -1.822 190 120 119
65.802 9.173 0.210 203 112 110
40.339 18.259 -1.852 176 144 99
5.544 46.148 2.185 208 79 179
83.439 0.545 3.386 157 99 99
78.105 18.790 0.311 161 141 82
10.368 37.933 3.527 167 184 123
7.202 29.068 1.404 185 114 149
84.286 40.274 3.566 139 181 88
83.139 41.620 4.489 165 144 113
80.658 38.842 2.921 137 147 83
69.606 7.742 1.946 151 104 121
16.414 47.711 2.388 181 109 98
87.838 20.176 0.359 155 125 131
13.258 40.041 2.615 119 141 80
68.018 19.673 -1.156 126 98 106
56.461 40.869 0.091 120 130 106
2.431 1.207 1.446 167 120 80
84.354 46.470 2.803 167 169 129
29.755 36.225 1.256 143 148 112
98.004 31.892 -0.147 198 140 101
54.841 18.531 -2.725 164 128 69
55.483 46.645 -0.122 135 81 124
30.339 24.410 -0.317 92 134 107
61.977 4.534 1.497 138 106 98
2.842 38.404 1.718 151 104 112
59.223 47.686 1.545 178 135 93
10.697 39.302 2.349 151 107 98
4.859 12.393 0.445 118 133 86
42.440 28.324 -2.409 152 127 80
23.324 29.232 0.785 169 106 88
50.067 43.942 -1.080 191 107 47
88.327 1.955 2.399 149 170 85
61.735 17.148 -1.388 103 126 91
18.921 21.444 0.305 112 101 106
89.485 40.945 2.218 190 121 108
79.959 40.063 3.256 172 155 91
28.072 22.201 -1.127 139 173 115
16.442 21.036 0.084 152 127 98
85.767 39.086 2.572 185 133 114
51.659 30.836 -2.536 160 112 102
46.471 4.344 -0.857 193 98 74
75.266 26.719 2.580 152 134 105
33.389 40.686 1.908 147 148 140
75.546 8.147 1.891 137 154 104
80.103 21.475 -0.536 199 134 99
22.043 2.644 2.502 175 165 94
57.173 42.062 0.791 183 141 132
68.095 39.320 2.687 184 113 106
73.738 25.253 0.211 112 105 59
12.151 31.535 1.847 168 71 96
3.455 44.705 2.571 162 142 116
44.104 49.873 -1.468 168 94 108
73.979 45.159 3.654 127 129 112
10.369 23.008 1.008 153 124 112
33.349 33.037 -0.419 121 101 107
69.939 10.275 1.289 179 102 126
69.065 33.359 2.115 141 167 126
51.475 3.458 -0.609 139 193 98
40.443 39.286 -0.291 154 132 112
93.656 25.242 -1.442 158 129 105
17.704 0.429 3.646 139 149 24
67.942 49.266 1.953 128 136 80
68.725 5.349 2.938 112 119 126
50.336 3.699 -0.269 185 77 100
80.662 24.717 0.586 91 123 135
5.259 28.885 -0.042 139 161 148
47.058 19.883 -4.563 166 152 79
73.822 0.709 3.167 129 107 131
49.690 29.045 -2.333 174 145 111
79.791 43.531 3.712 142 136 85
72.544 48.718 2.887 198 139 59
20.463 36.335 1.729 162 121 131
31.976 29.620 -0.656 132 123 91
52.369 23.069 -2.850 172 125 79
30.101 7.539 1.990 148 115 92
91.000 33.065 0.816 124 141 74
46.902 15.593 -2.883 170 104 80
34.724 5.071 0.027 163 101 97
23.914 8.582 1.172 129 129 130
61.479 48.796 0.538 144 113 75
13.187 35.250 3.287 144 149 116
29.471 28.222 -0.181 132 167 92
91.895 48.201 2.023 158 87 94
83.654 30.108 1.466 157 96 101
87.512 43.137 2.567 195 135 72
10.874 22.477 0.132 141 122 146
45.838 0.264 -0.447 201 145 90
38.331 33.954 -1.349 146 133 100
88.721 46.265 2.458 153 107 109
20.902 19.690 -0.491 157 133 123
11.675 5.197 2.243 219 139 65
37.213 2.644 0.421 197 75 138
24.755 15.572 -0.675 164 114 110
43.948 3.298 -0.424 134 135 113
96.889 41.384 0.455 135 97 122
17.859 31.670 1.244 148 166 122
41.683 32.880 -1.956 167 116 97
24.598 13.887 1.285 148 136 83
65.941 22.431 -1.219 190 143 99
97.779 36.049 -0.571 139 143 155
77.807 8.362 2.183 147 131 92
79.023 48.334 3.416 119 127 113
84.997 32.994 1.641 159 139 85
50.967 7.035 -1.397 134 117 86
74.576 20.645 -0.087 132 135 79
75.879 46.501 3.443 163 107 83
13.488 9.999 1.819 157 142 144
71.154 6.199 2.764 170 137 54
89.916 4.157 1.259 148 179 47
42.526 30.642 -1.587 128 135 63
92.043 5.024 1.558 183 168 116
63.367 29.302 -0.618 104 130 122
36.315 43.101 0.779 112 75 41
79.057 5.097 2.767 88 128 90
39.280 19.967 -2.727 194 111 63
74.974 37.791 2.880 143 127 87
52.448 19.728 -2.395 137 126 127
73.990 22.752 -0.168 128 112 110
67.873 13.435 0.404 183 123 109
18.739 41.473 3.564 174 111 100
85.797 43.968 2.243 149 124 98
22.445 2.576 1.541 129 91 101
61.136 6.862 1.325 200 191 75
84.716 21.652 0.699 153 151 153
58.475 27.313 -1.554 157 112 126
64.259 18.967 -0.567 93 153 117
61.017 35.742 0.628 145 121 115
69.286 32.318 1.282 183 133 89
39.616 13.512 -2.294 176 102 95
39.767 33.160 -1.325 205 125 76
23.601 41.268 3.232 173 157 132
15.140 47.527 2.711 164 83 95
29.904 14.440 -0.563 157 153 67
4.919 31.982 1.736 149 132 112
9.337 13.639 1.193 147 156 97
89.768 25.310 -0.774 160 176 105
83.532 13.122 1.142 159 103 139
95.682 24.825 -1.550 119 96 98
12.118 41.108 2.928 147 106 70
80.588 31.064 2.690 170 148 108
21.058 44.721 3.431 158 132 113
45.352 18.254 -3.582 123 174 77
13.110 37.536 3.568 165 133 143
38.174 47.731 -0.096 172 117 101
34.306 13.463 -2.040 145 98 132
99.367 17.550 -1.631 143 53 74
67.549 36.903 1.883 157 108 90
25.131 38.544 2.961 159 111 69
32.774 21.060 -1.599 155 85 82
80.669 45.051 3.722 109 117 92
55.845 12.666 -1.940 178 129 87
50.577 21.181 -4.096 168 173 104
91.521 9.169 0.818 148 156 110
35.303 8.902 -0.106 162 104 141
