48.740 36.747 0.274 197 122 86
66.184 32.227 0.907 157 105 81
92.203 0.864 2.142 189 111 92
29.556 42.043 1.644 153 105 129
69.958 37.201 1.795 180 132 97
55.215 46.259 0.473 90 170 97
13.275 3.717 3.287 126 98 105
42.291 22.895 -4.533 204 102 51
13.275 47.196 3.622 149 123 71
47.978 2.684 -0.215 124 172 100
72.975 18.997 0.792 89 144 44
52.193 27.077 -2.991 133 104 156
3.235 45.838 1.098 169 153 90
97.260 47.306 0.682 169 161 95
23.651 26.077 0.783 89 127 110
35.325 20.565 -2.754 204 102 51
83.044 15.601 0.906 141 128 108
49.646 18.767 -2.965 167 113 53
92.654 4.032 2.064 155 116 121
52.431 47.310 -1.247 146 166 77
92.395 21.172 -1.231 161 120 133
24.702 37.480 2.533 149 171 125
19.949 42.734 3.442 161 137 84
38.460 49.987 -0.984 155 148 131
19.780 16.162 0.092 111 107 98
93.767 17.888 -1.823 146 125 101
35.083 27.064 -3.640 204 102 51
15.026 1.816 3.199 193 116 85
42.502 13.181 -3.656 102 142 97
27.743 12.674 0.964 188 144 104
49.791 38.920 -1.120 154 109 76
30.344 7.966 0.211 161 134 121
69.476 36.952 2.739 162 88 121
20.123 32.912 1.448 164 93 131
21.864 37.816 2.474 152 115 102
46.910 3.760 -1.353 138 115 64
4.759 26.280 0.283 128 84 65
98.992 23.067 -1.860 124 163 51
46.435 22.792 -4.404 204 102 51
23.694 31.982 1.557 167 146 168
74.150 39.773 3.393 159 132 85
79.342 39.648 2.903 136 143 98
91.096 8.299 0.976 163 149 117
16.726 49.909 2.865 106 119 179
51.163 42.163 0.840 186 105 89
75.150 2.917 3.569 151 120 98
66.545 37.275 1.368 195 141 91
87.028 47.592 2.386 107 99 87
99.134 4.904 0.651 96 132 93
39.050 37.102 -0.040 127 126 94
71.452 40.794 3.376 136 117 110
58.303 48.279 0.574 198 143 102
61.855 44.454 1.992 118 123 147
16.147 33.887 2.675 131 164 116
62.657 4.716 0.912 185 85 74
38.544 45.486 -0.341 169 122 131
82.361 28.649 3.555 178 153 127
34.268 2.360 0.547 124 108 93
91.321 1.486 1.909 184 133 167
99.976 27.371 -2.155 141 109 60
81.370 12.782 1.061 183 133 126
96.678 37.460 0.385 148 101 85
99.507 29.207 -1.380 134 134 143
52.646 6.901 -1.049 141 176 119
20.924 3.413 2.661 141 110 87
72.429 6.185 2.785 177 171 95
42.319 6.071 -1.194 163 81 81
6.811 45.226 2.437 140 114 111
17.147 34.536 2.481 176 127 99
0.809 13.559 -0.226 179 140 130
78.754 2.608 3.080 136 106 74
65.920 8.090 1.266 128 183 90
52.067 24.697 -2.881 172 126 67
85.517 46.045 3.411 197 106 59
44.306 26.698 -5.087 204 102 51
14.135 17.465 0.148 220 126 68
74.260 33.232 2.554 165 129 108
94.561 18.255 -2.181 143 95 102
23.314 1.446 3.394 183 96 63
37.191 21.744 -3.714 204 102 51
95.315 37.703 1.529 161 86 38
41.973 25.621 -5.012 204 102 51
35.811 14.684 -1.656 129 140 138
19.369 10.668 1.930 97 154 55
28.970 18.646 -0.761 167 127 65
7.352 23.548 0.396 167 50 90
55.984 41.799 -0.224 182 135 99
82.162 26.057 3.420 178 153 127
46.944 7.655 -0.509 111 118 103
55.106 25.503 -2.369 182 138 46
93.034 44.018 1.767 195 115 114
8.745 42.076 1.815 169 98 67
83.990 12.625 1.548 156 139 105
28.241 0.632 1.723 143 113 98
19.899 30.429 1.703 162 120 111
72.119 32.037 1.736 153 164 48
50.333 34.854 -0.878 163 126 81
66.065 41.386 2.428 131 99 141
96.004 20.469 -2.166 150 124 154
93.056 19.881 -2.043 162 122 99
56.728 25.222 -2.415 60 123 102
3.896 33.767 1.654 155 98 74
79.583 36.190 1.894 185 101 139
40.219 11.037 -1.256 154 131 88
94.161 28.581 -0.539 143 163 101
94.857 12.045 -0.391 132 174 110
23.066 45.583 2.852 121 154 86
66.148 16.363 -0.449 180 147 149
16.255 30.903 1.854 169 165 88
99.635 16.924 -1.926 145 164 41
34.867 16.973 -1.258 138 198 64
15.320 34.605 2.237 140 102 97
68.107 43.278 2.293 143 122 76
87.250 44.120 3.205 161 161 117
95.044 26.056 -1.450 173 135 123
61.101 33.337 -4.261 76 76 76
19.670 11.595 1.415 141 140 92
81.159 10.938 2.890 170 72 118
25.751 47.947 2.271 176 52 77
94.176 30.026 0.333 139 112 92
31.249 40.673 1.683 115 132 70
85.281 42.233 2.683 175 158 31
66.975 38.457 2.980 130 120 60
72.524 4.965 2.006 81 99 63
59.330 27.956 -1.013 110 108 120
87.560 31.769 1.002 154 153 180
89.337 9.923 0.120 136 119 113
94.378 24.759 -1.461 124 153 79
93.572 22.531 -0.297 168 109 64
57.568 21.516 -2.251 176 164 104
71.881 30.640 1.307 139 114 73
79.872 31.629 4.542 178 153 127
12.495 32.922 1.703 128 121 142
19.648 3.732 3.383 115 140 92
12.520 39.985 3.012 116 159 104
72.295 9.322 1.290 160 128 71
10.106 31.123 1.748 85 131 104
23.500 34.736 1.504 215 124 118
33.396 28.176 -2.132 204 102 51
78.295 15.279 1.156 138 88 150
73.880 38.801 2.627 175 144 149
93.846 41.515 2.209 157 110 93
73.719 49.335 2.631 194 103 188
42.074 23.513 -5.109 204 102 51
68.934 20.833 -0.454 152 139 106
65.539 0.327 2.074 90 153 95
7.918 19.711 0.488 196 125 107
19.107 20.417 -0.846 123 106 122
47.054 17.240 -3.683 161 120 92
11.765 23.785 0.869 187 137 102
85.040 48.726 2.017 189 79 76
64.730 24.180 -3.126 76 76 76
44.173 31.591 -4.610 204 102 51
28.324 6.617 1.242 162 132 131
44.145 45.913 -1.691 140 130 59
41.451 8.452 -2.023 180 136 96
37.937 29.780 -2.981 204 102 51
61.533 9.796 -0.900 141 114 106
21.342 15.632 -0.230 156 81 71
76.848 46.675 2.719 154 156 72
78.650 35.466 2.740 143 105 153
94.341 44.149 1.243 172 102 95
52.921 47.053 -1.344 146 137 142
25.618 11.089 0.490 189 143 113
17.916 6.887 2.152 130 100 100
89.415 14.995 -0.209 118 141 46
45.124 47.031 -1.379 102 92 79
52.586 16.024 -2.446 167 129 122
15.544 12.094 0.931 170 174 132
67.932 29.233 1.104 130 88 127
50.008 21.214 -3.095 179 96 90
52.250 49.825 -1.086 185 149 63
85.310 1.551 3.653 170 158 98
58.184 9.669 -0.618 172 139 141
71.199 9.431 1.628 129 150 94
35.977 31.909 -2.322 204 102 51
34.746 13.268 -0.786 176 66 75
40.335 48.648 -1.288 210 161 69
95.871 27.964 -0.854 130 108 40
23.677 44.935 2.775 114 119 46
69.922 29.669 1.191 130 168 51
52.726 12.898 -2.835 191 123 147
80.609 2.448 3.180 153 126 125
75.526 0.254 4.231 177 155 104
70.039 46.510 3.034 126 121 113
72.648 9.221 0.986 149 127 104
41.003 11.681 -1.196 124 183 96
3.385 40.960 2.466 176 102 114
50.478 19.133 -3.486 183 121 117
69.618 29.129 -0.267 147 138 101
92.808 7.010 0.945 192 128 135
61.253 36.467 -2.294 76 76 76
75.960 17.571 0.575 144 127 127
11.481 27.776 0.599 184 111 69
95.286 2.050 2.054 182 151 104
83.797 27.996 5.557 178 153 127
12.014 27.399 0.998 169 142 139
28.542 24.024 -0.992 200 172 92
54.012 2.654 -0.334 214 127 95
61.996 35.032 -2.655 76 76 76
29.857 45.940 1.446 150 125 42
2.666 16.460 0.250 104 132 150
53.853 3.891 -0.407 167 172 116
67.965 45.499 1.724 207 141 96
59.598 28.448 -1.396 192 106 64
58.433 3.360 0.809 161 141 90
10.213 4.439 2.736 199 65 117
48.960 2.421 -0.934 164 160 116
37.628 42.443 0.787 187 128 87
61.969 28.993 -3.054 76 76 76
50.147 3.959 -0.522 140 101 85
38.756 43.340 0.111 158 133 87
61.921 20.363 -4.707 76 76 76
85.544 20.963 -0.747 143 163 97
97.635 16.601 -1.366 131 95 49
79.697 37.191 3.270 214 130 91
91.652 37.903 1.912 157 136 119
79.427 30.369 5.081 178 153 127
64.247 15.196 -3.340 76 76 76
32.405 22.100 -4.625 204 102 51
29.584 25.095 0.087 196 144 149
69.977 1.375 2.332 173 128 65
63.089 19.034 -4.106 76 76 76
16.133 10.776 1.748 165 124 136
75.211 5.878 2.899 168 122 123
36.392 6.777 0.914 200 133 54
10.118 26.887 1.159 175 172 96
85.348 40.573 2.999 167 140 66
42.610 17.459 -3.687 148 103 110
12.888 19.026 0.755 159 124 103
28.776 14.733 -0.351 142 154 69
80.043 27.326 3.744 178 153 127
70.047 13.344 0.811 161 123 97
76.665 8.485 1.878 144 107 109
94.507 34.876 -0.222 140 116 91
49.085 46.483 -1.784 158 134 59
63.407 11.032 -2.732 76 76 76
80.010 20.087 0.070 113 146 110
21.343 12.419 1.565 161 133 52
76.689 47.188 3.353 170 138 124
12.015 13.124 1.481 126 103 82
0.328 11.022 0.036 141 120 124
39.566 47.155 -0.283 167 159 117
85.900 33.308 1.837 162 142 62
59.092 4.110 0.762 160 115 126
84.458 33.730 4.283 178 153 127
63.072 7.565 0.870 125 83 82
25.443 41.655 2.799 160 136 135
56.461 11.521 -1.861 126 128 80
60.325 41.879 1.089 186 132 105
51.624 6.370 -0.628 140 125 112
65.277 5.320 2.633 160 122 74
29.860 6.231 0.944 137 135 85
46.921 33.879 -4.618 204 102 51
30.327 9.618 0.146 144 153 96
37.984 35.211 -0.868 153 164 105
44.739 16.985 -3.098 122 115 86
77.289 2.105 2.934 178 103 81
98.779 30.078 -0.601 180 90 133
38.687 13.299 -2.092 177 131 102
17.050 18.122 0.565 182 139 80
33.593 41.811 0.829 114 127 143
3.215 12.440 -0.261 147 157 70
10.328 46.310 3.420 139 113 125
35.097 24.009 -3.530 204 102 51
80.356 48.092 3.184 187 146 92
86.219 32.065 1.689 150 96 57
80.875 36.406 3.016 133 144 107
85.682 4.197 3.227 111 134 103
19.971 18.543 0.963 166 135 118
45.907 1.002 -0.409 157 149 55
20.190 9.810 2.108 150 117 69
83.086 21.897 0.124 157 159 149
12.200 27.757 1.012 137 124 78
18.455 15.335 1.341 140 122 90
86.887 49.766 2.207 191 120 102
55.088 31.002 -1.913 151 177 99
61.301 47.961 0.407 127 126 117
46.264 22.257 -6.160 204 102 51
65.501 1.767 1.924 151 115 121
77.410 9.016 2.289 150 139 101
34.776 18.275 -2.941 125 148 119
75.256 32.592 4.701 178 153 127
83.571 36.699 2.463 126 126 71
34.931 35.623 -0.097 175 132 109
10.437 19.154 0.965 144 128 55
42.809 16.613 -3.445 133 109 98
71.529 15.712 0.414 172 130 91
16.905 21.603 0.556 117 146 110
98.792 18.681 -1.976 161 141 106
99.518 41.624 0.966 167 121 110
68.441 32.392 0.636 178 79 67
69.691 25.986 -0.068 150 125 138
52.143 1.979 0.171 147 145 83
74.401 36.081 3.280 107 103 129
95.129 35.733 0.612 183 128 61
41.211 26.284 -4.116 204 102 51
59.491 2.762 0.700 216 122 139
49.076 44.868 -1.040 154 118 115
81.704 36.001 3.310 162 105 98
97.142 38.353 1.441 138 118 82
34.745 0.886 1.070 145 161 81
23.571 43.991 2.144 135 139 94
7.757 14.055 1.118 132 127 87
25.043 44.639 3.297 141 156 109
27.908 47.610 1.933 102 102 132
81.339 8.158 2.247 168 142 103
88.108 16.104 0.562 187 147 90
90.372 2.078 2.034 100 143 104
88.063 8.500 1.032 158 167 97
97.353 8.638 -0.661 110 128 118
25.547 26.547 0.227 153 99 142
14.079 6.888 2.432 133 140 117
43.785 44.691 -0.582 114 97 88
0.488 48.035 0.385 166 168 142
32.534 46.340 0.241 155 141 90
99.068 12.262 -1.058 148 143 108
32.788 6.063 0.533 79 128 155
33.705 38.700 1.201 168 120 101
70.951 9.444 0.861 202 132 116
87.481 26.116 0.921 145 94 103
62.401 19.215 -4.263 76 76 76
48.976 44.662 -0.448 152 119 88
71.468 49.374 2.484 137 137 138
99.412 29.612 -2.502 199 134 116
87.055 37.588 2.007 136 92 130
76.783 18.956 1.297 122 179 97
64.829 20.814 -4.456 76 76 76
75.288 24.858 0.724 161 140 80
47.950 45.979 -1.649 183 130 75
95.466 40.421 0.379 153 163 160
21.714 49.900 2.330 98 92 105
17.193 17.095 0.823 129 90 77
55.212 11.537 -1.558 183 170 99
99.893 15.956 -2.021 142 129 102
51.981 42.090 -0.226 191 128 102
24.613 24.396 -0.162 132 142 116
76.218 18.405 0.327 179 95 73
18.824 1.840 3.071 147 89 96
76.306 12.535 1.470 117 73 80
23.036 9.272 1.383 145 108 91
71.728 28.184 0.882 145 90 161
62.150 1.302 1.625 139 150 51
64.155 22.435 -3.753 76 76 76
95.161 37.894 1.747 136 163 130
77.021 40.711 4.171 192 109 119
36.031 11.745 -0.918 173 117 85
39.834 23.472 -4.814 204 102 51
24.493 7.911 2.779 157 116 91
39.229 37.498 -0.320 148 192 110
12.375 48.975 3.304 144 110 83
16.493 21.889 -0.340 165 105 110
58.056 32.272 -0.447 149 134 119
98.499 21.897 -1.534 149 125 84
83.091 1.978 2.983 169 127 120
14.578 9.046 2.647 129 109 85
37.811 29.099 -2.252 204 102 51
48.345 10.291 -1.353 172 115 100
46.809 19.542 -3.367 187 186 99
2.654 30.028 0.085 129 58 141
78.168 11.736 1.204 156 123 78
58.689 34.493 -0.289 164 111 96
32.378 18.125 -0.928 197 119 112
93.101 42.839 2.132 150 140 80
71.394 33.261 2.108 153 138 95
92.702 1.845 2.305 195 119 95
10.843 42.801 3.067 183 107 59
18.436 47.093 2.779 175 95 93
99.205 36.752 0.285 136 141 86
78.180 10.757 2.130 190 152 131
17.415 11.621 1.962 143 105 158
24.968 35.757 1.653 194 110 94
78.886 40.169 4.006 152 155 128
96.240 4.701 1.347 153 88 66
55.897 29.917 -2.124 134 132 85
50.268 41.191 0.530 181 134 143
1.546 1.941 1.871 144 89 117
0.582 41.114 1.230 163 126 137
26.052 11.824 0.898 160 167 74
19.175 3.899 2.930 143 99 107
97.812 8.598 -0.560 99 128 135
45.268 23.336 -4.471 204 102 51
66.704 18.262 -1.382 81 122 124
80.423 27.824 6.047 178 153 127
12.252 26.606 0.164 162 175 85
25.601 34.661 1.828 176 98 132
8.611 3.906 2.198 133 95 71
39.677 19.109 -3.268 121 101 151
75.545 24.693 1.303 170 117 109
67.782 2.745 2.971 161 106 129
17.388 10.109 1.910 151 115 111
35.208 18.279 -1.410 175 122 74
78.746 48.848 2.798 138 127 113
16.031 13.879 0.956 86 132 103
58.425 19.736 -1.549 190 152 129
93.169 34.752 0.560 137 126 116
83.427 47.879 2.845 192 122 68
83.100 31.068 3.335 178 153 127
59.306 33.185 -0.724 175 154 47
96.551 31.422 -2.033 149 142 110
49.148 17.261 -3.301 147 178 70
81.929 9.553 1.661 142 110 85
14.322 42.708 4.120 125 161 67
65.561 33.679 0.436 160 105 69
0.832 16.041 -0.891 188 125 73
57.275 33.771 0.039 111 94 118
91.954 46.138 2.721 89 88 67
3.322 42.814 2.110 170 165 90
74.123 15.522 0.133 159 147 105
38.386 3.701 -0.183 166 128 100
67.763 4.168 1.711 108 115 98
19.844 2.940 2.321 145 112 111
59.513 3.429 1.575 212 155 155
84.708 22.368 -0.429 119 118 123
61.339 15.168 -3.737 76 76 76
32.804 19.083 -1.032 158 149 118
29.390 40.032 1.762 162 128 91
56.415 7.286 0.082 169 157 69
60.703 13.675 -2.567 76 76 76
16.736 2.765 2.870 163 91 108
84.137 19.050 -0.099 181 116 99
73.392 0.902 3.874 129 71 178
79.289 48.925 2.062 159 141 88
84.022 45.546 3.093 134 115 67
0.298 18.305 -1.848 212 88 120
79.394 0.272 3.524 164 170 89
9.504 36.955 2.819 119 182 102
99.275 31.513 -1.515 146 130 147
59.776 22.751 -1.864 165 191 121
95.673 45.387 1.690 181 77 103
78.522 23.582 0.449 161 127 101
87.968 30.208 0.994 134 111 105
20.180 37.576 2.894 165 145 82
3.121 43.598 1.717 130 144 100
4.676 0.054 1.997 147 108 93
95.165 15.788 -2.033 186 108 82
14.934 45.856 2.943 159 100 124
62.280 34.453 -2.696 76 76 76
74.185 42.902 2.910 160 88 91
95.707 13.383 -0.579 172 151 104
38.068 20.802 -3.945 204 102 51
32.385 8.070 1.419 132 167 110
69.952 19.059 -0.194 152 120 132
0.331 46.475 1.480 162 107 82
94.366 10.440 0.165 143 127 120
99.686 46.676 0.360 164 135 110
16.071 42.057 3.238 181 149 55
33.022 14.041 -0.766 184 132 67
86.024 20.912 0.569 147 141 106
62.272 43.537 1.377 194 135 89
58.955 14.985 -1.822 128 57 105
46.453 0.420 -1.057 153 79 128
14.764 24.444 0.853 158 122 62
10.809 6.143 1.795 183 125 80
42.703 43.070 -0.543 169 161 104
65.926 9.818 1.639 200 139 77
89.708 41.434 3.123 172 116 91
64.790 6.493 1.590 162 113 87
73.123 48.608 2.312 149 138 95
52.203 9.093 -1.971 144 117 86
94.946 36.942 0.703 118 82 108
15.599 20.648 0.609 167 127 102
52.143 0.004 -1.313 182 177 130
37.043 9.038 -0.909 128 142 123
24.755 20.119 -0.486 112 126 68
37.153 28.566 -3.455 204 102 51
67.701 6.503 3.232 122 136 88
27.518 38.378 1.995 138 112 135
11.388 39.909 3.026 162 112 63
35.470 27.226 -3.255 204 102 51
14.564 11.723 1.162 99 151 57
80.843 5.822 3.338 205 135 137
63.457 14.634 -5.158 76 76 76
63.448 26.437 -3.076 76 76 76
11.193 34.248 1.763 112 146 131
89.631 44.954 1.753 181 83 102
93.970 7.309 0.816 133 147 48
98.501 27.080 -1.483 157 149 117
78.465 4.595 3.352 146 107 89
12.062 17.963 0.174 175 150 84
20.499 47.823 2.311 89 155 111
53.209 44.299 -0.488 142 182 106
26.231 37.261 1.423 156 153 151
86.753 20.712 0.699 190 132 135
35.273 9.285 -0.045 189 111 147
90.528 9.930 1.047 177 148 96
77.920 30.344 6.229 178 153 127
58.303 37.708 0.935 152 92 98
39.402 16.330 -2.449 229 152 142
67.218 34.280 1.916 191 126 118
61.444 33.544 -3.602 76 76 76
19.930 10.997 0.498 161 121 103
31.871 24.150 -2.999 204 102 51
60.195 23.878 -4.749 76 76 76
33.101 6.753 -0.296 136 91 100
62.757 44.549 2.335 177 111 176
92.024 13.746 -0.883 106 88 109
95.071 34.175 0.641 157 143 102
47.956 25.086 -4.968 204 102 51
16.754 32.075 1.574 144 114 44
71.460 7.649 1.872 182 107 77
60.358 28.089 -4.650 76 76 76
77.683 31.176 4.640 178 153 127
99.680 4.578 -0.478 154 115 103
27.139 39.143 1.889 159 126 98
30.267 47.918 1.206 125 92 112
20.889 27.669 1.275 164 158 137
58.500 26.390 -1.808 148 80 125
38.613 2.222 0.029 168 138 99
28.374 31.616 0.319 147 127 109
37.367 23.809 -4.941 204 102 51
23.519 39.449 2.870 146 123 102
76.107 17.866 0.088 206 156 85
32.316 32.368 -2.220 204 102 51
17.979 30.518 1.290 206 150 104
72.690 12.556 1.397 158 140 102
62.881 9.044 0.644 190 95 126
28.731 21.262 -0.749 172 69 103
47.277 28.865 -4.575 204 102 51
75.703 4.340 3.754 146 98 69
31.168 6.685 0.747 154 144 69
83.455 36.069 2.605 140 152 139
5.776 34.620 2.146 157 118 129
51.816 47.599 -0.531 141 173 73
70.035 37.747 2.777 144 104 71
41.719 19.501 -3.186 147 164 65
18.244 37.524 3.231 154 132 98
23.852 7.820 2.441 120 138 116
53.651 27.062 -2.801 128 136 88
41.945 20.161 -5.614 204 102 51
97.256 31.223 -1.202 126 132 73
48.640 13.607 -2.839 108 131 84
88.779 41.303 1.993 111 137 110
87.007 6.478 1.919 142 126 168
65.271 30.250 0.382 163 158 95
27.098 25.540 -0.143 167 156 83
33.458 7.817 -0.156 127 128 116
12.987 30.842 0.343 178 152 145
10.951 10.748 1.667 166 119 155
43.886 2.658 -0.739 173 117 142
10.192 10.967 1.630 197 128 132
37.323 9.952 0.098 122 178 59
89.914 11.771 0.657 172 128 101
30.897 38.358 1.566 125 121 107
95.136 23.662 -1.867 90 126 47
90.514 28.189 -0.210 151 142 87
90.782 25.403 -0.575 210 121 128
2.533 31.094 0.287 182 118 105
15.037 43.537 2.453 165 161 107
41.785 19.706 -2.838 148 143 109
71.345 10.949 1.176 142 120 123
50.897 20.054 -3.379 151 154 77
65.874 12.301 0.685 111 135 119
2.737 9.094 0.593 163 149 95
13.716 45.099 3.220 156 93 79
83.692 26.466 3.753 178 153 127
88.742 8.780 2.019 133 122 113
85.870 49.201 2.040 130 113 74
54.435 12.952 -1.724 133 161 106
13.648 39.176 3.191 169 121 112
47.005 37.377 -1.239 129 116 85
18.399 36.304 2.843 128 104 107
20.363 13.290 0.119 151 142 121
23.832 25.548 1.431 107 136 93
43.020 4.104 -0.883 177 166 96
41.325 49.990 -0.639 162 129 123
34.683 17.408 -2.262 133 147 79
98.627 9.032 -0.377 155 84 123
43.546 46.578 -1.267 167 158 78
57.649 6.567 -0.877 134 139 73
76.631 23.492 0.521 164 116 116
40.729 5.560 -0.081 188 161 94
76.556 25.150 3.706 178 153 127
3.832 36.417 1.530 138 119 119
27.598 33.752 1.407 182 148 94
24.625 36.039 2.013 184 135 69
17.625 3.028 3.099 140 124 114
15.258 18.678 0.692 177 91 123
4.683 37.106 1.887 153 107 109
83.901 1.282 2.535 156 119 94
53.933 31.466 -2.203 132 120 98
5.631 49.788 1.555 120 87 126
27.714 6.892 1.495 115 142 126
46.309 8.537 -2.632 151 150 136
91.677 1.999 1.617 132 135 97
3.226 32.612 0.692 138 108 132
40.524 35.265 -0.828 107 111 104
25.860 16.288 -0.153 167 132 116
99.088 19.188 -3.009 113 122 151
3.326 43.477 2.160 177 51 112
56.030 27.199 -1.814 103 127 75
89.785 38.112 2.698 147 113 77
89.885 15.010 0.485 195 169 85
13.214 10.543 2.357 169 108 107
7.167 9.156 1.776 138 143 67
60.389 46.817 1.218 137 178 61
25.597 23.586 -0.667 133 106 108
67.220 46.194 1.240 189 108 100
40.104 15.852 -3.141 138 113 85
77.861 0.247 3.264 149 127 156
66.913 48.623 1.446 201 114 78
87.543 2.420 3.084 190 132 109
36.424 23.337 -4.107 204 102 51
56.101 34.028 -0.916 176 139 124
61.971 44.750 0.647 189 116 79
67.319 31.746 1.326 142 129 186
41.606 49.456 -0.803 154 131 115
80.649 23.227 0.229 150 132 126
80.697 15.760 0.935 153 109 85
66.360 21.060 -0.453 135 140 74
45.261 17.709 -2.786 165 152 99
16.005 27.282 1.320 154 128 103
47.186 13.275 -2.691 161 79 52
6.972 34.726 2.292 137 135 115
2.522 28.951 -0.314 160 130 102
8.879 33.697 1.995 177 115 80
7.034 6.686 2.283 165 121 88
19.659 28.311 1.102 193 123 106
38.735 36.992 -0.796 180 114 134
94.720 22.080 -2.074 142 111 68
52.807 48.840 -0.973 116 131 86
48.153 22.492 -5.302 204 102 51
88.813 22.090 -0.959 198 183 97
96.055 34.976 1.318 151 195 124
74.150 15.981 0.574 162 127 118
7.968 41.478 2.460 117 81 120
46.493 20.202 -5.883 204 102 51
77.966 43.584 3.552 145 125 97
23.647 4.810 2.720 115 135 101
10.809 27.005 1.184 198 190 116
50.981 3.536 -1.139 168 149 124
31.821 2.717 1.408 140 131 73
94.894 31.321 0.394 153 107 111
40.895 21.854 -5.108 204 102 51
39.239 5.562 -0.689 145 109 124
1.978 24.075 -1.077 99 127 128
98.359 23.752 -2.815 143 105 66
67.649 4.690 2.404 154 145 90
47.942 0.718 -0.109 151 129 125
72.589 35.010 2.868 149 122 92
58.724 10.913 -1.086 152 95 100
39.606 27.204 -5.420 204 102 51
72.472 6.671 2.689 112 113 83
58.586 39.513 1.486 136 108 115
41.572 33.288 -3.181 204 102 51
9.082 23.532 -0.072 156 120 81
56.493 5.924 -0.401 168 160 111
29.021 17.236 -1.034 126 149 44
68.951 36.214 1.809 113 124 77
20.621 4.009 2.875 130 142 43
31.845 46.457 0.709 174 132 72
46.714 31.282 -5.453 204 102 51
28.369 20.241 -0.998 168 147 85
30.484 41.319 1.886 136 126 76
9.258 11.563 1.230 148 110 94
24.649 30.288 1.526 121 100 113
19.021 19.273 -0.127 134 104 103
91.983 6.651 1.904 148 191 83
62.188 9.263 -0.341 155 135 114
92.367 43.032 0.964 98 119 122
84.421 30.935 4.919 178 153 127
55.877 10.535 -0.193 150 129 100
9.892 42.573 2.706 191 184 106
4.931 12.021 0.768 154 87 108
74.316 21.522 0.422 138 151 105
4.626 14.227 -0.555 105 137 115
32.840 13.149 -0.882 178 113 66
72.511 24.983 0.175 185 125 61
8.204 1.877 3.097 170 144 109
80.273 26.995 4.013 178 153 127
10.206 9.117 1.662 139 158 97
35.336 19.447 -1.914 150 95 114
2.244 3.676 1.374 132 124 99
19.435 45.016 2.378 148 126 139
52.109 24.839 -3.317 123 103 122
93.581 14.293 -0.884 165 95 122
74.592 0.279 4.166 153 115 107
67.580 15.634 -0.679 161 123 104
25.137 21.855 -0.375 120 149 113
92.801 6.982 0.450 145 144 106
59.638 24.602 -1.180 182 112 83
70.926 49.880 1.680 169 115 103
17.948 44.421 3.086 168 143 125
52.169 11.570 -1.530 164 145 102
53.886 18.575 -3.147 147 127 79
81.620 25.255 5.259 178 153 127
69.450 29.004 0.271 160 192 114
21.568 43.821 2.338 146 108 104
44.613 11.908 -3.142 150 108 84
5.412 39.476 3.269 164 81 96
59.348 2.064 1.185 139 127 38
42.973 46.370 -0.202 154 91 52
65.704 3.250 2.402 130 156 163
48.721 18.975 -2.054 167 88 105
71.158 47.643 3.004 172 128 119
98.068 39.120 0.481 102 151 82
9.074 48.820 2.772 171 147 132
23.487 8.743 0.547 137 93 69
29.614 28.082 -0.368 124 122 165
34.462 15.161 -1.558 141 105 67
67.193 34.263 -0.199 172 99 93
22.737 26.525 0.413 116 145 61
21.613 14.167 1.023 131 110 153
59.939 18.380 -1.477 145 161 155
76.974 39.358 4.298 148 118 132
5.984 1.158 2.126 161 116 111
84.105 43.117 3.436 160 132 78
30.980 15.040 -1.043 147 73 96
36.364 11.974 -2.246 142 140 78
88.967 7.294 2.017 158 122 71
66.882 30.984 0.808 174 170 106
53.465 11.253 -2.083 125 122 151
15.532 35.990 2.056 84 132 119
0.880 7.561 0.315 182 136 115
14.566 48.065 2.701 129 162 73
56.973 23.707 -2.325 137 144 104
22.056 22.501 -0.037 197 152 112
54.832 18.396 -2.724 123 124 103
59.257 14.816 -2.543 164 112 114
32.169 27.480 -2.525 204 102 51
47.231 34.564 -4.012 204 102 51
76.759 15.527 0.042 159 102 143
4.320 6.527 0.993 94 150 136
55.546 21.670 -2.599 145 102 88
48.283 14.054 -3.079 103 139 98
33.200 32.403 -2.079 204 102 51
83.801 27.440 3.338 178 153 127
79.157 33.095 7.419 178 153 127
97.883 35.683 0.376 159 99 119
87.909 5.716 2.301 121 145 79
45.765 9.535 -2.133 149 130 121
88.591 31.130 1.014 156 77 88
23.606 38.788 2.310 185 136 83
76.608 16.005 0.796 175 105 72
89.103 39.932 1.989 146 97 124
89.661 32.657 0.433 120 113 103
61.100 23.978 -5.768 76 76 76
81.369 19.594 -0.033 150 74 83
55.751 40.481 -0.432 127 155 96
24.935 22.428 -1.114 135 130 60
67.153 13.753 -0.059 139 111 87
64.014 29.282 -1.846 76 76 76
21.366 33.297 2.644 158 124 122
99.854 32.490 -0.765 121 138 124
79.348 46.451 3.579 148 116 87
13.837 25.401 0.374 132 106 100
1.644 23.540 -2.044 171 137 84
69.022 21.888 -0.147 187 169 98
41.124 29.976 -4.621 204 102 51
79.384 4.024 2.778 151 135 146
37.631 11.835 -1.716 141 117 73
69.950 39.897 2.517 145 156 113
96.509 27.503 -0.893 149 91 87
25.679 37.964 2.561 144 153 132
7.840 18.496 -0.048 144 111 99
56.092 36.692 0.114 169 133 88
50.102 1.477 -1.043 128 77 95
28.970 12.606 0.233 123 118 94
98.382 22.091 -2.441 163 68 114
12.696 46.444 3.435 185 113 107
7.251 43.763 2.072 180 135 119
80.670 44.211 2.312 155 135 145
84.687 41.971 2.249 137 120 119
62.528 16.499 -3.289 76 76 76
80.643 16.005 0.859 158 111 107
91.941 6.710 1.222 160 114 110
10.007 2.690 3.621 146 122 92
14.625 17.773 0.804 159 128 96
8.367 22.362 -0.662 180 139 86
92.035 4.761 1.207 142 117 106
5.248 42.310 2.744 167 131 133
5.240 38.159 2.684 165 96 121
85.168 38.380 2.740 149 102 55
39.545 39.369 0.990 137 103 85
95.173 9.084 -0.739 161 150 105
62.298 32.259 -2.411 76 76 76
56.518 36.037 -0.853 138 130 138
70.346 28.843 1.185 146 102 44
13.417 35.991 1.991 177 105 94
2.414 42.786 2.181 186 162 34
77.490 27.261 4.812 178 153 127
61.617 21.599 -3.818 76 76 76
46.241 10.229 -2.779 143 140 78
29.524 33.381 0.085 147 109 102
73.492 33.788 2.256 169 114 103
89.715 46.981 2.272 140 95 122
31.225 14.429 -0.651 167 111 156
55.186 29.888 -1.288 157 112 130
40.939 48.989 -0.937 178 105 129
45.974 48.143 0.246 83 93 139
50.235 42.126 -0.694 164 104 161
50.744 9.064 -1.176 122 132 110
69.146 32.065 1.355 203 92 118
9.678 11.370 0.576 143 97 102
39.214 38.491 -1.235 135 106 122
10.634 5.807 2.606 154 113 124
31.394 30.392 -2.295 204 102 51
97.529 12.575 -0.497 132 149 141
52.716 40.286 -0.852 142 135 115
52.925 22.609 -3.179 141 109 130
26.922 40.958 2.844 131 120 97
8.589 43.570 3.909 178 129 70
74.977 37.898 3.476 181 105 64
91.038 7.846 0.812 165 71 82
31.003 40.188 1.690 174 108 160
13.641 40.590 3.270 199 130 100
85.979 33.472 1.038 157 161 113
36.235 37.698 0.550 138 107 102
35.203 9.727 -0.015 174 130 18
0.445 1.038 1.574 147 93 94
49.305 26.771 -3.999 204 102 51
5.319 48.329 1.709 135 112 92
8.992 30.204 -0.006 134 115 84
64.661 1.287 2.386 151 136 104
19.675 26.390 0.927 126 95 63
38.362 21.734 -5.012 204 102 51
21.714 39.840 3.707 176 130 142
54.245 39.313 -0.579 126 137 111
50.327 5.973 -0.889 178 122 103
38.511 16.334 -1.277 159 102 60
13.518 35.475 2.167 181 112 148
49.466 5.330 -0.687 155 129 95
1.291 22.232 -0.836 136 142 121
31.752 39.344 1.265 204 143 95
52.594 36.794 -1.068 190 166 77
38.452 1.323 0.332 101 97 69
19.781 8.130 2.441 166 125 109
24.921 34.225 0.741 127 148 113
13.911 36.778 2.438 138 152 85
26.585 3.946 2.139 201 139 97
14.580 44.459 3.212 190 172 51
64.123 13.128 -3.977 76 76 76
48.333 0.127 -0.202 133 127 111
24.227 45.549 2.840 208 136 74
29.984 41.047 1.939 144 129 52
67.019 20.599 -0.573 198 160 107
96.479 12.217 -1.738 169 96 81
2.008 6.756 0.326 135 83 77
93.538 35.651 1.754 170 126 70
14.520 32.762 2.295 159 193 135
64.002 17.990 -4.610 76 76 76
86.500 1.672 2.731 141 165 58
90.647 42.469 1.777 158 141 76
35.479 20.133 -4.914 204 102 51
6.181 22.403 -0.598 177 113 103
51.262 26.249 -2.642 157 105 105
75.608 45.658 3.738 165 149 99
7.332 25.503 0.741 135 130 75
75.285 49.859 3.337 113 158 103
41.949 29.587 -2.908 204 102 51
22.844 41.502 2.907 132 136 97
49.917 13.642 -3.267 124 96 123
27.182 12.102 0.728 161 147 66
95.369 5.311 1.305 167 154 173
19.030 31.932 3.032 130 81 96
54.292 32.825 -1.361 137 136 92
19.707 4.567 3.514 171 133 79
44.364 6.170 -1.315 137 159 72
4.381 10.376 1.118 193 163 111
85.011 20.603 -0.328 101 100 120
38.886 36.669 -0.751 173 134 136
40.811 40.342 -0.174 164 144 87
21.511 47.252 1.872 171 165 110
56.970 20.961 -2.686 201 133 73
60.178 26.599 -3.933 76 76 76
45.828 26.555 -4.913 204 102 51
85.730 14.243 1.141 179 136 128
59.914 21.418 -1.415 141 99 110
95.218 35.181 0.938 156 98 57
31.096 40.462 1.329 134 108 122
96.075 9.835 0.400 122 146 126
3.716 5.078 2.038 151 177 97
94.012 8.487 0.439 169 161 58
92.788 35.030 0.763 133 171 80
54.834 21.580 -3.064 144 116 115
58.756 28.173 -2.224 159 118 126
36.396 21.488 -3.772 204 102 51
55.021 19.276 -2.813 160 119 56
76.869 46.712 3.727 139 100 93
60.453 12.009 -4.365 76 76 76
27.229 26.347 -0.077 153 113 15
53.985 25.248 -3.718 151 128 104
48.755 14.741 -2.949 138 125 136
64.554 14.687 -2.795 76 76 76
25.890 38.310 2.270 139 125 75
32.533 47.594 1.217 165 141 87
37.203 22.089 -3.288 204 102 51
7.882 37.946 2.412 144 148 81
62.525 29.618 -2.937 76 76 76
50.845 45.955 -0.660 178 136 81
63.785 41.358 1.813 166 151 126
90.525 38.193 1.312 162 143 147
39.631 5.900 -1.191 156 103 110
62.432 12.023 -3.369 76 76 76
82.621 30.123 3.669 178 153 127
41.980 13.841 -3.383 129 153 125
8.418 17.742 0.984 151 92 77
6.600 1.931 1.994 135 139 84
5.663 20.069 0.143 174 109 117
91.557 18.265 -1.001 160 135 100
63.986 11.153 -2.274 76 76 76
65.990 32.672 0.564 181 168 91
88.614 2.569 1.839 162 118 107
31.645 34.954 -0.480 204 102 51
4.888 24.210 -0.912 190 136 79
80.146 2.484 3.389 175 121 145
27.514 8.271 0.625 144 111 114
44.230 16.772 -3.442 144 150 92
33.589 46.281 0.713 116 126 109
7.601 40.783 2.993 158 165 79
61.967 7.556 0.700 152 111 64
39.731 10.002 -1.148 186 123 107
94.982 44.854 1.977 123 118 109
89.967 29.370 1.113 181 147 123
3.407 21.186 -0.853 129 130 109
35.103 3.400 0.209 160 123 92
84.054 20.450 0.287 164 100 119
65.563 40.334 2.257 141 97 73
14.084 40.549 3.571 129 82 84
40.070 40.231 -0.601 145 118 111
95.714 46.570 0.215 166 150 120
11.969 36.112 3.108 185 126 102
8.930 43.852 3.757 129 117 126
64.946 34.273 -2.771 76 76 76
99.819 22.723 -2.360 136 99 92
77.791 6.004 4.030 126 122 94
17.167 11.401 1.913 150 160 95
99.232 18.206 -2.771 156 91 107
47.395 49.294 -1.207 171 115 65
75.926 37.607 2.000 142 113 120
13.320 5.928 3.045 132 110 121
77.331 26.284 4.756 178 153 127
21.562 30.152 1.641 151 135 115
67.501 30.150 0.075 152 166 111
15.830 31.681 1.865 161 112 85
90.872 33.618 0.751 160 125 112
86.966 27.365 0.187 203 49 126
32.387 44.243 0.612 142 94 97
84.410 12.137 1.119 156 138 121
78.435 45.839 3.354 164 179 96
58.950 2.423 0.720 132 69 136
76.184 1.048 3.908 171 74 84
28.493 48.374 0.975 131 161 47
19.839 38.270 3.013 171 95 137
75.652 30.162 5.296 178 153 127
47.005 35.244 -0.970 177 143 59
82.782 5.429 3.048 164 102 93
52.638 21.535 -2.859 161 79 126
61.029 8.441 0.542 136 84 90
12.594 42.506 3.341 116 191 83
80.829 41.355 3.472 129 131 110
26.675 9.624 0.182 122 153 88
25.259 3.434 1.966 97 146 150
71.022 24.796 1.117 146 132 161
98.038 24.620 -1.759 149 125 125
56.062 37.590 -0.367 143 133 141
13.478 34.051 3.052 186 171 94
87.119 24.491 -0.182 143 102 45
11.891 24.686 0.427 151 123 97
78.416 47.318 2.548 141 135 69
72.431 27.714 0.794 169 137 75
41.590 45.166 -0.301 71 125 54
48.816 16.932 -3.285 135 92 118
18.745 43.329 2.846 172 137 95
17.335 12.357 2.189 168 81 126
2.019 32.072 0.473 150 181 79
45.353 34.147 -3.110 204 102 51
66.111 38.698 1.886 185 116 82
91.561 29.757 -0.129 180 110 76
9.685 12.734 1.166 160 112 106
28.155 5.313 0.808 115 117 52
36.900 33.404 -2.792 204 102 51
48.788 1.818 0.184 168 129 52
44.284 25.442 -4.871 204 102 51
97.062 18.060 -1.481 113 144 112
27.584 2.761 1.861 153 115 131
81.395 13.288 0.468 120 103 100
40.978 20.578 -4.341 204 102 51
75.505 19.268 0.012 156 124 117
99.694 49.236 -0.366 150 159 108
0.852 40.933 1.943 161 109 89
92.862 39.195 1.584 183 126 59
70.818 20.747 -0.880 116 139 102
89.951 36.596 1.884 118 161 90
45.393 15.915 -2.829 173 142 135
64.805 30.358 -1.797 76 76 76
8.880 22.679 0.509 185 130 91
48.913 4.664 -0.752 151 127 139
66.685 12.986 -0.010 140 104 123
26.302 25.398 -1.265 109 118 117
22.152 13.602 0.634 160 127 114
92.150 29.546 -0.010 155 145 62
70.215 14.371 -0.097 128 151 121
24.972 19.218 0.708 103 163 115
36.033 35.938 -0.398 157 117 131
17.118 37.937 3.606 222 169 66
23.493 45.671 3.019 155 127 83
61.883 13.056 -4.057 76 76 76
32.516 45.976 0.802 164 132 114
52.568 14.692 -3.765 187 111 125
32.212 0.036 0.444 139 114 70
6.838 11.227 0.666 179 154 109
27.340 28.590 0.201 173 66 103
32.886 7.836 0.265 134 124 112
77.543 39.780 2.766 166 165 113
77.162 23.540 0.006 142 109 75
84.595 6.594 1.994 166 119 84
54.143 15.661 -2.359 135 169 78
23.659 34.958 0.851 170 156 88
15.482 3.168 2.696 189 177 73
99.329 43.084 1.000 162 136 72
90.261 4.076 1.211 150 135 116
34.127 37.418 1.335 131 155 84
43.142 49.453 -1.768 135 136 86
88.455 5.546 2.872 158 120 92
96.870 47.357 1.288 96 110 90
43.007 17.686 -2.972 141 103 79
33.154 3.854 0.825 105 156 81
86.632 36.322 2.424 132 115 124
38.877 39.624 -0.340 142 98 59
34.542 29.104 -4.584 204 102 51
81.319 7.983 2.378 177 129 113
6.470 48.158 2.530 155 119 120
49.803 19.803 -3.390 183 177 89
62.079 6.392 0.579 101 128 116
88.435 23.286 -0.294 161 168 120
90.578 21.940 -0.979 147 141 96
15.583 17.800 1.079 127 106 143
83.834 42.196 2.558 129 106 79
28.874 14.534 -0.581 150 132 83
71.672 18.630 -0.410 178 108 119
35.468 35.446 -0.577 173 141 102
90.278 44.786 3.318 161 109 57
62.173 16.838 -4.339 76 76 76
39.526 33.319 -2.578 204 102 51
30.788 45.643 0.627 106 127 96
29.630 49.428 0.851 166 153 144
17.665 20.603 1.108 156 149 74
92.624 1.575 1.783 143 82 90
12.299 0.731 3.056 142 122 106
17.234 9.433 2.441 182 113 117
37.170 27.403 -4.580 204 102 51
51.869 7.491 -0.743 105 93 94
62.077 32.192 -3.571 76 76 76
66.553 32.838 0.562 173 139 105
69.480 3.414 2.745 182 162 58
10.842 8.546 2.407 157 113 119
53.374 40.674 0.425 134 134 92
9.226 26.807 1.999 176 100 67
86.212 2.649 3.593 150 157 83
13.857 35.731 2.654 177 137 67
32.680 21.726 -4.353 204 102 51
94.905 34.232 0.089 134 134 146
61.031 9.077 0.174 198 134 119
98.533 38.551 0.201 128 111 107
62.091 13.569 -3.787 76 76 76
91.887 26.294 -0.963 162 106 100
82.459 42.913 3.555 155 145 131
53.636 29.821 -1.521 110 159 99
47.464 48.022 -0.485 187 135 86
81.568 20.388 -0.018 150 139 68
22.995 4.601 2.850 137 79 137
94.385 28.381 -0.461 174 157 121
78.662 35.425 2.970 167 130 56
17.128 9.267 2.760 130 122 76
0.712 32.609 0.461 166 125 114
54.082 12.025 -1.089 141 155 152
20.118 22.988 0.183 148 157 104
30.432 15.061 -0.843 160 119 85
0.020 40.307 1.922 147 110 168
34.596 1.218 0.884 160 111 89
96.060 28.540 -0.172 149 116 74
66.803 21.038 -0.145 165 107 106
77.449 32.315 5.534 178 153 127
73.740 36.315 2.659 156 145 80
79.878 4.665 2.293 172 143 102
74.142 1.140 2.594 159 163 62
34.445 13.275 -0.714 176 105 83
92.612 23.629 -0.725 181 135 137
91.403 47.052 1.023 125 122 103
4.156 43.813 1.973 137 138 136
16.355 45.288 3.065 109 120 124
6.196 19.779 0.167 168 101 106
82.445 11.042 1.979 151 127 107
83.752 7.847 2.703 149 109 108
59.954 45.499 1.217 162 152 119
49.681 20.999 -5.356 204 102 51
42.258 5.961 -0.972 191 128 105
36.695 20.948 -4.703 204 102 51
34.348 23.512 -4.575 204 102 51
53.009 11.619 -1.389 163 164 109
1.256 23.456 -1.211 137 142 132
76.160 34.877 6.595 178 153 127
6.104 11.106 1.654 180 120 72
90.888 14.362 -0.838 123 109 49
22.418 47.463 2.687 174 131 106
31.773 3.271 1.688 161 94 84
46.668 7.385 -1.189 103 130 68
5.115 18.367 -0.406 146 104 81
26.987 11.218 0.231 205 101 117
53.028 47.087 -0.156 161 116 125
44.981 21.863 -4.415 204 102 51
12.298 3.705 3.391 170 106 119
9.649 16.052 1.017 178 140 59
45.818 37.804 0.392 124 134 96
89.942 9.130 0.934 121 97 131
82.753 24.739 1.146 128 97 120
39.387 48.255 -0.518 162 142 119
71.380 21.923 0.127 134 167 60
91.165 35.868 1.867 155 93 125
34.189 2.948 0.653 147 174 113
10.995 14.710 0.774 116 128 69
11.104 0.462 3.532 93 109 106
77.757 47.779 3.467 176 112 105
86.145 26.709 0.273 145 156 120
84.635 26.588 3.146 178 153 127
89.216 31.500 0.830 138 70 139
44.882 16.838 -3.844 145 141 121
56.182 34.642 0.084 139 133 55
93.096 8.485 0.707 137 111 107
88.561 3.842 2.715 136 138 125
53.340 30.801 -2.463 129 104 84
15.525 6.373 2.294 135 139 121
94.762 13.247 -0.895 164 98 95
66.092 35.905 2.122 156 118 53
75.464 23.228 0.807 177 120 69
61.158 2.082 0.866 151 150 106
41.104 32.956 -2.112 204 102 51
98.536 11.558 -0.489 132 133 63
12.904 4.720 2.851 162 130 113
40.441 9.642 -2.227 112 162 106
77.611 43.694 2.886 124 151 63
66.755 48.810 1.926 148 135 103
19.435 26.220 0.868 148 127 92
80.273 8.741 2.715 118 134 90
61.975 48.720 0.414 135 157 83
83.824 9.018 2.542 162 56 83
62.858 14.885 -3.399 76 76 76
39.264 29.413 -4.807 204 102 51
95.800 5.352 0.755 147 153 98
59.173 39.749 1.713 134 121 116
2.280 12.672 -0.628 148 160 62
69.604 34.845 1.872 145 126 93
79.476 48.287 4.099 183 111 127
42.533 11.734 -2.104 182 91 101
46.741 14.478 -3.582 104 130 121
91.022 35.734 2.662 151 126 97
97.862 46.183 -0.136 167 121 116
90.996 0.248 1.531 163 77 104
10.288 48.923 1.405 154 128 124
85.660 0.918 3.487 178 140 107
28.816 19.310 -0.905 164 154 84
40.746 23.811 -4.900 204 102 51
24.224 15.127 0.351 129 90 124
56.146 41.906 0.378 181 156 117
54.158 2.833 0.278 114 118 85
16.463 6.702 2.538 152 100 112
43.113 30.047 -5.337 204 102 51
76.882 10.759 2.590 113 123 91
20.634 0.513 2.548 149 103 73
38.437 9.245 -1.546 141 77 73
41.752 26.853 -4.564 204 102 51
55.560 11.757 -1.032 122 120 143
5.533 45.410 2.155 134 98 71
78.981 18.836 0.538 143 80 90
15.880 48.102 2.727 147 123 105
43.088 45.054 -0.682 162 121 108
94.997 34.992 0.666 144 146 63
81.674 11.239 1.135 150 138 133
69.772 6.333 2.100 186 116 111
41.093 15.836 -2.722 162 165 96
88.753 22.449 -0.415 131 165 103
7.989 25.882 -0.058 119 150 86
19.118 36.912 3.007 154 147 108
38.233 22.517 -5.917 204 102 51
62.937 23.758 -3.403 76 76 76
18.376 10.450 1.995 126 152 112
1.187 33.173 -0.336 153 132 77
67.560 42.546 2.269 136 119 70
20.932 18.974 0.391 153 139 107
76.003 13.004 1.953 114 83 92
66.002 17.581 -0.792 105 133 100
4.631 30.909 0.555 95 103 39
29.641 33.287 1.070 132 88 93
34.569 41.467 1.294 150 193 108
36.584 39.902 0.783 156 143 98
31.176 19.216 -0.985 155 180 109
73.088 23.162 0.617 196 124 113
32.368 9.260 -0.215 163 100 159
33.173 43.664 1.501 153 146 86
13.160 2.225 2.880 189 94 66
3.986 5.028 2.184 152 123 137
83.610 16.578 -0.190 139 151 73
81.118 45.263 3.764 157 154 59
85.210 4.752 2.905 187 155 104
23.349 11.392 -0.320 153 53 146
13.514 39.403 3.567 154 104 85
91.787 7.247 1.364 126 129 69
80.816 6.279 2.362 136 174 43
99.930 39.481 0.219 160 128 107
84.300 20.031 0.182 111 120 92
26.320 27.810 -0.522 129 138 91
85.701 14.309 1.132 147 92 111
48.996 28.947 -6.006 204 102 51
70.206 44.501 2.297 107 131 92
4.050 26.932 -0.705 174 137 133
17.195 26.163 1.078 150 152 81
66.799 42.010 2.547 156 132 120
81.890 17.990 0.040 159 118 101
65.030 24.346 -0.699 145 136 114
53.410 30.726 -2.255 123 148 110
25.988 43.205 2.346 169 117 116
80.210 3.386 2.881 173 133 49
97.471 20.461 -2.330 142 122 101
11.203 10.035 2.237 153 126 86
68.462 29.342 1.671 164 125 88
86.659 4.661 2.403 127 123 124
58.460 4.821 0.376 158 170 125
28.112 5.908 1.854 170 159 119
59.661 33.035 0.217 150 128 93
15.488 43.312 3.319 123 178 89
19.181 38.178 2.497 204 155 123
3.660 3.899 1.647 181 127 83
11.267 12.364 1.013 122 72 136
5.514 25.851 0.173 127 152 156
41.468 13.852 -2.638 217 175 79
28.138 0.950 1.924 200 160 123
63.808 43.467 1.853 116 119 104
41.163 25.438 -4.041 204 102 51
13.141 36.339 3.171 127 146 113
22.324 41.908 3.059 196 146 76
7.863 31.178 1.754 120 134 93
39.790 7.381 -1.604 163 185 74
90.132 9.453 1.238 175 151 94
8.050 22.657 -0.254 180 112 113
1.445 10.351 0.358 139 106 94
99.097 20.296 -2.887 147 180 123
45.553 33.373 -3.580 204 102 51
89.012 30.656 0.995 202 129 79
68.226 11.579 1.600 137 149 111
23.148 5.002 1.668 166 178 65
97.497 24.821 -2.457 165 100 115
30.056 35.255 1.387 203 101 85
1.342 9.728 -0.526 168 141 120
65.394 24.136 -0.917 155 132 128
14.021 24.279 0.256 119 171 106
93.170 38.038 1.306 153 141 167
44.886 4.348 -1.148 165 90 106
81.956 46.330 3.291 152 104 131
13.792 32.596 2.273 145 152 85
45.287 10.428 -1.242 169 93 109
26.378 24.302 -0.730 205 122 132
48.924 8.793 -1.798 149 71 83
12.909 18.464 0.130 185 145 114
41.535 42.949 0.134 158 153 111
45.175 32.878 -2.872 204 102 51
10.328 44.828 3.364 178 79 111
26.727 0.512 2.458 129 111 69
20.348 14.565 1.001 156 100 164
64.671 13.620 -4.051 76 76 76
60.349 15.165 -5.358 76 76 76
31.775 20.701 -4.080 204 102 51
61.331 42.702 1.105 102 116 65
24.804 49.979 2.602 184 182 70
15.838 2.947 3.192 136 156 85
62.131 39.484 -1.487 76 76 76
17.409 33.990 3.297 192 115 76
44.367 26.965 -4.851 204 102 51
47.958 14.015 -2.028 168 143 73
54.180 14.063 -1.512 165 72 105
94.180 21.514 -0.696 116 96 122
44.049 23.293 -5.050 204 102 51
19.641 42.533 2.927 136 159 105
69.264 22.662 0.118 147 145 90
74.842 26.436 0.824 146 142 151
91.852 19.751 -1.199 180 112 57
10.151 7.138 1.647 164 135 52
52.969 45.274 -0.410 160 163 80
82.263 37.951 3.274 155 133 65
47.147 18.037 -3.887 111 112 120
41.866 32.732 -4.243 204 102 51
34.100 14.724 -1.526 144 119 122
44.574 2.136 -0.585 187 127 102
23.871 9.640 1.947 172 129 120
73.294 0.581 2.810 159 162 119
96.035 12.165 -1.011 156 128 96
77.526 18.334 0.695 88 155 113
94.630 12.497 -0.913 177 144 77
13.695 10.754 0.919 140 128 108
15.510 14.868 1.411 221 158 109
86.045 43.439 2.387 173 147 160
88.047 9.272 0.441 189 138 93
52.377 9.858 -2.023 133 85 149
69.060 25.747 -0.450 193 167 111
90.712 32.575 0.298 165 125 94
3.863 43.480 2.059 138 17 125
22.958 34.787 2.898 134 114 112
38.204 39.736 -1.246 181 88 90
5.623 41.143 3.387 186 132 63
69.141 48.145 1.749 196 128 89
95.543 7.962 1.113 151 112 132
73.262 6.579 2.750 124 165 108
85.408 31.368 1.726 147 134 144
12.578 18.299 0.589 139 112 93
81.983 30.271 4.383 178 153 127
5.225 35.371 1.180 204 121 108
84.663 45.859 3.391 156 146 56
20.252 43.345 4.464 210 137 117
76.367 8.663 1.758 162 81 88
20.452 36.670 2.823 143 136 129
60.178 47.106 0.356 146 135 80
0.376 2.142 1.343 187 91 101
16.831 35.793 3.579 164 138 91
46.187 7.487 -2.404 133 131 89
40.764 21.793 -5.788 204 102 51
83.393 19.750 0.188 149 117 89
51.502 5.433 -1.776 193 115 135
16.049 25.600 1.001 205 119 109
46.781 7.524 -1.448 175 149 108
11.783 33.029 1.458 149 128 81
91.294 23.562 -0.651 141 105 101
5.616 33.747 1.552 117 151 117
64.337 24.237 -4.879 76 76 76
51.907 33.484 -1.165 154 137 75
25.505 44.312 2.398 141 130 103
64.244 21.920 -4.515 76 76 76
4.464 5.227 2.023 150 106 120
60.089 6.835 0.385 187 128 115
58.021 20.383 -2.860 150 119 107
59.600 31.611 -0.284 139 120 113
17.222 13.215 1.898 165 91 92
41.597 14.333 -3.109 168 184 113
0.620 4.172 1.011 152 72 58
46.645 15.344 -2.123 131 104 104
68.623 1.944 2.728 146 106 72
69.349 25.686 -1.188 147 160 132
1.540 34.661 0.822 157 160 70
51.255 42.217 0.505 178 177 92
1.702 47.573 0.785 172 116 84
7.427 46.555 1.344 131 140 123
3.499 8.123 2.188 147 129 144
89.338 47.628 2.816 186 113 123
76.407 29.962 7.413 178 153 127
73.550 19.571 0.258 124 86 114
11.228 28.315 1.561 191 121 74
29.323 20.077 -1.611 186 140 113
10.331 45.164 3.630 193 147 89
39.863 8.536 -1.687 184 138 92
30.819 45.057 1.400 164 135 81
72.521 0.130 3.651 155 138 114
80.186 32.996 6.102 178 153 127
19.276 5.737 2.111 190 110 104
25.526 11.982 -0.020 177 147 107
54.055 26.127 -1.926 139 91 93
65.678 48.583 1.002 143 132 96
95.175 28.242 -0.367 124 132 137
78.991 47.134 3.597 185 156 119
47.471 27.989 -5.038 204 102 51
4.509 49.955 1.656 146 141 127
85.032 26.108 -0.175 179 138 60
19.779 26.271 0.904 167 157 68
96.790 8.015 0.299 156 112 64
74.439 38.130 2.608 126 141 122
84.049 11.964 1.484 129 116 107
41.909 4.807 -0.449 140 132 97
70.437 33.227 2.259 127 134 112
8.022 46.288 2.270 129 135 73
17.933 6.166 4.036 137 178 83
2.795 3.523 1.585 147 125 121
45.808 16.478 -3.216 136 111 117
39.294 40.829 -0.189 179 151 77
38.921 38.895 0.036 113 99 107
66.155 46.345 1.279 171 171 107
77.106 48.268 3.626 104 147 98
95.772 27.680 -1.638 177 114 86
2.866 29.576 0.687 164 132 89
30.984 47.881 1.248 155 145 97
12.270 26.459 0.664 132 157 73
44.419 43.778 -0.711 183 130 98
50.710 9.931 -0.936 94 152 141
54.550 37.702 -0.421 177 138 90
20.795 46.913 1.653 143 111 70
71.346 28.328 1.329 136 111 97
34.866 10.672 -0.225 122 99 121
31.416 31.184 -2.128 204 102 51
3.387 35.903 1.684 205 135 111
81.091 35.607 2.439 145 114 171
48.185 21.460 -6.235 204 102 51
77.982 6.157 3.377 170 155 71
34.903 25.981 -2.701 204 102 51
6.992 2.809 3.127 140 149 94
16.726 33.446 1.739 161 75 84
25.509 0.251 2.487 153 129 61
19.379 13.680 1.223 156 165 114
55.870 14.022 -1.776 168 128 122
3.976 2.592 2.173 199 86 68
18.349 30.828 1.908 149 164 147
60.267 14.319 -3.830 76 76 76
22.042 37.627 3.559 156 142 78
36.621 25.845 -3.931 204 102 51
2.450 1.631 1.347 153 160 65
14.193 24.857 0.671 192 140 94
89.150 13.710 0.813 149 122 91
31.206 34.196 -2.152 204 102 51
61.808 32.541 -2.236 76 76 76
94.607 38.667 0.897 152 105 97
52.277 20.931 -2.739 183 136 102
73.859 32.745 1.762 195 115 102
4.105 29.186 0.201 214 100 109
17.410 19.604 1.163 152 141 101
28.714 44.328 2.077 147 121 83
83.925 19.284 0.045 155 104 134
81.467 7.773 2.061 171 133 109
49.486 24.066 -4.812 204 102 51
5.760 42.717 2.383 175 79 86
80.563 33.666 6.607 178 153 127
14.067 38.334 2.718 132 130 102
35.144 39.636 1.121 175 131 90
3.250 15.655 -1.039 123 116 81
62.439 4.135 1.521 169 141 78
75.744 45.090 3.301 155 107 99
27.479 44.680 2.203 159 164 79
32.745 10.661 -0.213 187 171 124
24.616 27.562 1.133 148 183 113
50.897 41.591 -1.090 152 130 87
4.489 30.758 0.887 120 140 84
90.167 9.875 1.131 121 95 78
95.519 20.124 -2.122 170 87 80
24.083 5.456 2.646 201 108 82
41.475 34.604 -3.832 204 102 51
90.116 9.520 1.192 133 113 99
75.182 3.153 3.010 191 142 56
10.582 17.059 -0.001 150 164 173
65.952 45.984 2.017 192 139 86
34.673 6.092 0.877 146 130 72
70.515 29.779 0.932 177 96 87
71.310 18.711 -0.437 110 141 81
42.686 11.125 -0.848 182 116 88
67.501 0.995 2.397 150 154 89
44.507 4.588 -0.594 148 142 107
7.942 9.115 1.210 167 103 123
84.838 21.090 -0.435 117 136 140
26.523 38.199 2.261 165 203 90
93.139 2.242 1.630 146 70 93
25.186 17.036 -0.214 177 143 101
79.543 24.627 0.845 187 145 111
20.908 19.375 0.360 161 118 136
14.947 13.386 1.504 129 134 95
49.297 25.234 -5.511 204 102 51
71.866 23.156 0.439 189 135 106
4.696 26.777 -0.325 148 101 112
30.342 36.464 1.459 134 127 115
38.715 21.281 -4.458 204 102 51
42.617 40.251 -1.079 160 159 136
62.893 48.336 1.078 165 130 116
63.207 33.456 -2.798 76 76 76
26.492 47.862 3.005 102 165 102
69.424 36.041 2.643 182 161 84
97.319 32.622 -0.284 163 135 103
32.000 22.407 -2.871 204 102 51
65.035 20.319 -1.322 119 159 108
63.481 24.127 -2.212 76 76 76
15.243 21.404 -0.036 194 121 123
84.969 25.592 2.266 178 153 127
66.430 16.734 0.115 187 199 96
36.359 16.699 -1.597 149 90 109
29.103 15.111 -0.505 147 153 70
18.880 36.682 3.027 176 146 96
70.131 12.345 1.177 148 162 109
86.410 48.015 1.904 155 135 72
7.620 45.167 2.873 110 91 130
83.655 32.512 4.401 178 153 127
86.447 14.214 0.283 141 111 104
37.288 7.798 -0.276 149 132 118
22.325 43.996 3.175 167 122 137
92.087 43.093 1.507 189 191 100
94.957 13.016 -0.647 148 148 67
9.227 31.227 2.303 184 158 117
57.390 38.583 1.028 160 108 82
38.705 47.114 -0.051 186 139 165
44.904 48.162 -1.360 152 151 54
59.946 4.551 0.709 201 84 83
62.571 5.574 0.631 108 147 92
6.383 29.408 0.585 199 107 118
86.672 46.318 2.063 138 89 100
76.822 18.315 0.399 128 131 89
5.663 19.615 -0.338 174 106 119
47.304 37.097 -1.284 155 98 141
10.134 29.879 1.662 171 120 69
79.545 13.639 1.362 119 143 118
98.124 22.466 -2.443 87 154 61
79.101 18.020 0.184 180 123 99
32.790 46.342 -0.043 156 150 58
20.311 42.116 3.949 191 125 104
9.780 47.279 3.274 155 120 110
33.716 29.585 -4.036 204 102 51
65.175 7.041 0.396 137 109 90
57.208 21.285 -2.134 134 119 128
59.036 24.632 -1.981 161 100 118
98.280 45.579 0.639 167 141 118
63.362 48.840 0.343 112 143 79
25.064 44.605 2.867 170 130 128
8.248 37.862 3.270 154 151 94
2.354 5.169 1.825 141 140 81
42.139 40.153 0.474 151 179 152
77.757 22.388 0.194 145 120 144
11.192 10.383 1.956 129 46 75
79.363 19.009 1.051 176 119 106
51.906 48.768 -0.950 113 168 98
37.721 13.284 -2.142 150 164 92
32.201 37.685 1.063 136 108 98
91.592 34.238 1.389 168 140 54
94.915 3.327 0.987 138 119 71
55.846 20.817 -2.769 204 88 111
62.129 18.128 -4.613 76 76 76
53.123 29.180 -2.241 175 151 83
75.233 15.938 0.271 177 86 120
97.468 43.072 0.116 163 163 112
41.767 36.491 -0.987 156 140 81
82.757 37.514 2.555 162 138 89
70.166 48.046 3.066 188 142 122
36.956 44.893 0.647 158 98 89
60.542 12.247 -3.292 76 76 76
51.419 8.533 -0.658 139 130 103
70.445 11.657 0.931 190 120 64
43.946 29.380 -3.258 204 102 51
28.157 42.196 1.768 143 85 125
53.329 5.972 -0.093 160 137 115
51.443 28.152 -2.420 97 155 71
71.668 40.179 2.291 160 132 109
